# .PCD v0.7 - Point Cloud Data file format
VERSION 0.7
FIELDS x y z
SIZE 4 4 4
TYPE F F F
COUNT 1 1 1
WIDTH 1537
HEIGHT 1
VIEWPOINT 0 0 0 1 0 0 0
POINTS 1537
DATA ascii
-0.07564602 -0.036546491 0.36000001
-0.066645116 -0.034820683 0.34299999
-0.059253179 -0.033703987 0.33199999
-0.053835902 -0.033602469 0.331
-0.048890736 -0.033805504 0.333
-0.043620281 -0.033805504 0.333
-0.038349822 -0.033805504 0.333
-0.033278041 -0.03400854 0.33500001
-0.028309969 -0.034414612 0.33899999
-0.023689063 -0.035531312 0.34999999
-0.019031093 -0.037257116 0.36700001
-0.014375427 -0.040505692 0.39899999
-0.0086260149 -0.043348201 0.42699999
-0.0018546786 -0.043043643 0.42399999
0.004810242 -0.042637572 0.41999999
0.011348545 -0.0422315 0.41600001
0.01776023 -0.041825429 0.412
0.024045298 -0.041419357 0.40799999
0.030203747 -0.041013286 0.40400001
0.03632617 -0.040708732 0.40099999
0.042140793 -0.040201139 0.396
0.048041634 -0.039896585 0.39300001
0.053571373 -0.039388996 0.38800001
0.059096735 -0.038982924 0.384
0.064665206 -0.03867837 0.38100001
0.070138708 -0.038373817 0.37799999
0.075718634 -0.038170781 0.37599999
0.080800831 -0.037764706 0.37200001
0.086222485 -0.03756167 0.37
0.091083102 -0.037155598 0.366
0.096081793 -0.036851045 0.36300001
0.10098552 -0.036546491 0.36000001
0.10579428 -0.036241937 0.35699999
0.11019591 -0.035835866 0.35299999
0.11479893 -0.035531312 0.34999999
0.11930697 -0.035226755 0.347
0.12372006 -0.034922201 0.34400001
0.12803818 -0.034617648 0.34099999
0.13226134 -0.034313094 0.338
0.13679667 -0.034110058 0.336
0.14084572 -0.033805504 0.333
0.14479981 -0.033500951 0.33000001
0.14820433 -0.033094879 0.32600001
0.15195267 -0.032790326 0.32300001
0.15560605 -0.032485768 0.31999999
0.15916447 -0.032181215 0.317
0.16211 -0.031775143 0.31299999
0.1659964 -0.031572107 0.31099999
0.16926993 -0.031267554 0.308
0.17188309 -0.030861482 0.30399999
0.1755321 -0.030658444 0.30199999
0.17852074 -0.030353891 0.29899999
-0 -0 0
-0 -0 0
-0 -0 0
-0 -0 0
-0 -0 0
-0 -0 0
-0 -0 0
-0 -0 0
-0 -0 0
-0 -0 0
-0 -0 0
-0.28463897 -0.050896652 0.59399998
-0.27292082 -0.050468229 0.58899999
-0.25957078 -0.049697068 0.57999998
-0.24693732 -0.049011592 0.57200003
-0.23455711 -0.048326112 0.56400001
-0.22283019 -0.047726322 0.55699998
-0.21094063 -0.047040842 0.54900002
-0.2000411 -0.046526738 0.54299998
-0.18862635 -0.045841262 0.53500003
-0.17813833 -0.045327153 0.52899998
-0.16719839 -0.044641677 0.52100003
-0.15681678 -0.044041883 0.514
-0.14665675 -0.043442093 0.50700003
-0.13699174 -0.042927984 0.50099999
-0.12751666 -0.042413875 0.495
-0.11823151 -0.041899767 0.48899999
-0.10778055 -0.040871553 0.477
-0.073754869 -0.030075293 0.35100001
-0.066256516 -0.029218448 0.34099999
-0.0597886 -0.02870434 0.33500001
-0.054323841 -0.028618656 0.33399999
-0.049184375 -0.02870434 0.33500001
-0.043882262 -0.02870434 0.33500001
-0.038580153 -0.02870434 0.33500001
-0.033675391 -0.029047079 0.33899999
-0.028811032 -0.029561186 0.345
-0.024095161 -0.030503716 0.35600001
-0.019445939 -0.032131724 0.375
-0.015456286 -0.036758691 0.42899999
-0.0086462162 -0.036673009 0.428
-0.0018546786 -0.036330268 0.42399999
0.0048216949 -0.036073215 0.421
0.011375825 -0.035730477 0.417
0.017846445 -0.035473425 0.414
0.024104232 -0.035045002 0.40900001
0.03035327 -0.034787945 0.40599999
0.036416758 -0.034445208 0.40200001
0.042353626 -0.03410247 0.398
0.04816388 -0.033759732 0.39399999
0.053847514 -0.033416994 0.38999999
0.05940453 -0.033074256 0.38600001
0.06483493 -0.032731518 0.382
0.070324264 -0.032474462 0.37900001
0.075920008 -0.032303095 0.377
0.081235245 -0.032046039 0.37400001
0.086455517 -0.031788986 0.37099999
0.091580823 -0.031531934 0.368
0.096346483 -0.031189194 0.36399999
0.10126603 -0.03093214 0.361
0.10609063 -0.030675085 0.35800001
0.11050808 -0.030332347 0.354
0.11512692 -0.030075293 0.35100001
0.1196508 -0.029818241 0.34799999
0.1240797 -0.029561186 0.345
0.12841366 -0.029304132 0.34200001
0.13304394 -0.029132763 0.34
0.1372038 -0.02887571 0.33700001
0.14126869 -0.028618656 0.33399999
0.14523861 -0.028361602 0.331
0.14865895 -0.028018864 0.32699999
0.15242311 -0.02776181 0.324
0.15560605 -0.027419072 0.31999999
0.15916447 -0.027162017 0.317
0.16262792 -0.026904963 0.31400001
0.1659964 -0.02664791 0.31099999
0.16926993 -0.026390856 0.308
0.1730139 -0.026219487 0.30599999
0.17611332 -0.025962433 0.303
0.1791178 -0.025705379 0.30000001
-0 -0 0
-0 -0 0
-0 -0 0
-0 -0 0
-0 -0 0
-0 -0 0
-0 -0 0
-0 -0 0
-0 -0 0
-0 -0 0
-0 -0 0
-0.28128466 -0.041002635 0.58700001
-0.27338418 -0.041212186 0.58999997
-0.26046583 -0.040653378 0.58200002
-0.24780074 -0.040094569 0.574
-0.23580475 -0.03960561 0.56699997
-0.22403036 -0.039116655 0.56
-0.21247754 -0.038627695 0.55299997
-0.2007779 -0.038068887 0.54500002
-0.18933149 -0.037510075 0.537
-0.17881182 -0.037090968 0.53100002
-0.16784023 -0.03653216 0.523
-0.15742697 -0.036043201 0.51599997
-0.14723529 -0.035554245 0.509
-0.13753863 -0.035135135 0.50300002
-0.12803188 -0.034716029 0.49700001
-0.11871507 -0.034296922 0.491
-0.10845841 -0.033528559 0.47999999
-0.074175119 -0.024657462 0.35299999
-0.066062212 -0.023749396 0.34
-0.059967071 -0.023469992 0.336
-0.054649133 -0.023469992 0.336
-0.049478013 -0.023539843 0.33700001
-0.044144247 -0.023539843 0.33700001
-0.039040811 -0.023679545 0.33899999
-0.034072738 -0.023958949 0.34299999
-0.029228583 -0.024447909 0.34999999
-0.024704309 -0.025495676 0.36500001
-0.02006821 -0.027032401 0.38699999
-0.014231312 -0.02759121 0.39500001
-0.0083835982 -0.028988235 0.41499999
-0.0018153104 -0.028988235 0.41499999
0.0047415239 -0.028918382 0.414
0.011375825 -0.029127937 0.417
0.017889552 -0.028988235 0.41499999
0.024222102 -0.028708829 0.41100001
0.030428033 -0.028429424 0.40700001
0.036507346 -0.02815002 0.403
0.042460043 -0.027870616 0.39899999
0.048286121 -0.02759121 0.39500001
0.053985585 -0.027311806 0.391
0.059558429 -0.027032401 0.38699999
0.065174378 -0.026822848 0.384
0.07088092 -0.026683146 0.382
0.07612139 -0.02640374 0.37799999
0.081452452 -0.026194187 0.375
0.086688548 -0.025984634 0.37200001
0.092078544 -0.025844932 0.37
0.096611172 -0.025495676 0.36500001
0.10154655 -0.025286121 0.36199999
0.10638697 -0.025076568 0.359
0.11082026 -0.024797164 0.35499999
0.11545492 -0.024587611 0.352
0.11999462 -0.024378058 0.34900001
0.12443936 -0.024168503 0.34599999
0.12916461 -0.0240288 0.34400001
0.13343525 -0.023819247 0.34099999
0.13761093 -0.023609694 0.338
0.14169164 -0.023400141 0.33500001
0.14567739 -0.023190588 0.33199999
0.14911357 -0.022911182 0.32800001
0.15289356 -0.022701629 0.32499999
0.15657859 -0.022492075 0.322
0.15966657 -0.022212671 0.31799999
0.16314584 -0.022003118 0.315
0.16653016 -0.021793563 0.31200001
0.16981952 -0.02158401 0.30899999
0.17357931 -0.021444308 0.30700001
0.17611332 -0.021164903 0.303
0.1791178 -0.02095535 0.30000001
-0 -0 0
-0 -0 0
-0 -0 0
-0 -0 0
-0 -0 0
-0 -0 0
-0 -0 0
-0 -0 0
-0 -0 0
-0.28198621 -0.029817788 0.55199999
-0.27918983 -0.030466001 0.56400001
-0.27457598 -0.030952161 0.57300001
-0.26736045 -0.031168232 0.57700002
-0.25822815 -0.031168232 0.57700002
-0.24823245 -0.031060196 0.57499999
-0.23663652 -0.030736091 0.56900001
-0.22483046 -0.030357966 0.56199998
-0.21324599 -0.029979842 0.55500001
-0.20151469 -0.029547701 0.54699999
-0.19074178 -0.029223593 0.54100001
-0.17948531 -0.028791452 0.53299999
-0.1691239 -0.028467346 0.52700001
-0.15834224 -0.028035203 0.51899999
-0.14781381 -0.027603062 0.51099998
-0.13781206 -0.027224937 0.50400001
-0.1285471 -0.026954848 0.49900001
-0.11919864 -0.026630742 0.493
-0.10936223 -0.026144583 0.484
-0.074805506 -0.019230314 0.35600001
-0.066256516 -0.018420046 0.34099999
-0.060324017 -0.018257994 0.338
-0.055137072 -0.018312011 0.33899999
-0.049918469 -0.018366029 0.34
-0.044406231 -0.018312011 0.33899999
-0.039386306 -0.018474065 0.34200001
-0.034768101 -0.018906206 0.34999999
-0.029980175 -0.019392366 0.359
-0.024839675 -0.019824509 0.36700001
-0.019497795 -0.020310668 0.37599999
-0.014159256 -0.021228969 0.39300001
-0.0080603752 -0.021553075 0.39899999
-0.0018109361 -0.022363342 0.414
0.0047071651 -0.022201288 0.41100001
0.011348545 -0.022471378 0.41600001
0.017932659 -0.022471378 0.41600001
0.024281036 -0.022255307 0.412
0.030502794 -0.022039235 0.40799999
0.036597937 -0.021823164 0.40400001
0.042672876 -0.02166111 0.40099999
0.048408367 -0.021391023 0.396
0.054123655 -0.021174952 0.39199999
0.059866223 -0.021012899 0.389
0.065344103 -0.020796828 0.38499999
0.071066469 -0.020688793 0.38299999
0.076524146 -0.020526739 0.38
0.081886865 -0.020364685 0.377
0.086921588 -0.020148614 0.373
0.092078544 -0.019986561 0.37
0.097140543 -0.019824509 0.36700001
0.10210758 -0.019662455 0.36399999
0.10668331 -0.019446384 0.36000001
0.11144459 -0.01928433 0.35699999
0.11611091 -0.019122278 0.354
0.12033845 -0.018906206 0.34999999
0.12515867 -0.018798171 0.34799999
0.12991557 -0.018690135 0.34599999
0.13382655 -0.018474065 0.34200001
0.1384252 -0.018366029 0.34
0.14253756 -0.018203976 0.33700001
0.14611618 -0.017987905 0.333
0.14956817 -0.017771835 0.329
0.153364 -0.017609781 0.32600001
0.15657859 -0.01739371 0.322
0.16016866 -0.017231656 0.31900001
0.16366376 -0.017069604 0.31600001
0.16706391 -0.01690755 0.31299999
0.17036909 -0.016745497 0.31
0.17414472 -0.016637461 0.308
0.17669456 -0.016421391 0.30399999
0.1803119 -0.016313355 0.30199999
-0 -0 0
-0 -0 0
-0 -0 0
-0 -0 0
-0 -0 0
-0 -0 0
-0.29423791 -0.020123126 0.52700001
-0.28698197 -0.020199494 0.52899998
-0.28387609 -0.020581339 0.53899997
-0.28096452 -0.021001365 0.55000001
-0.2762197 -0.021306841 0.55800003
-0.27074248 -0.02157413 0.565
-0.26319018 -0.021688683 0.56800002
-0.25554293 -0.021803236 0.57099998
-0.2460739 -0.021765051 0.56999999
-0.23663652 -0.021726867 0.56900001
-0.22563057 -0.021535946 0.56400001
-0.21401444 -0.021268656 0.55699998
-0.2026199 -0.021001365 0.55000001
-0.19144693 -0.020734075 0.54299998
-0.18049555 -0.020466786 0.53600001
-0.16976574 -0.020199494 0.52899998
-0.15895241 -0.019894021 0.52100003
-0.1486816 -0.019626731 0.514
-0.13890581 -0.019397626 0.50800002
-0.12906232 -0.019130334 0.50099999
-0.11992398 -0.018939413 0.49599999
-0.1100401 -0.018595755 0.48699999
-0.075856142 -0.013784532 0.361
-0.066645116 -0.013097215 0.34299999
-0.061037913 -0.013059031 0.34200001
-0.055462364 -0.013020847 0.34099999
-0.050212108 -0.013059031 0.34200001
-0.044668216 -0.013020847 0.34099999
-0.039846964 -0.013211768 0.34599999
-0.034768101 -0.013364505 0.34999999
-0.029896664 -0.01366998 0.35800001
-0.024975041 -0.014090007 0.36899999
-0.019757073 -0.014548219 0.38100001
-0.014231312 -0.015082799 0.39500001
-0.0081007779 -0.015311905 0.40099999
-0.0018021878 -0.015731933 0.412
0.0047415239 -0.015808301 0.414
0.011430385 -0.015999222 0.419
0.017975766 -0.015922854 0.417
0.02433997 -0.015770117 0.41299999
0.030652318 -0.015655564 0.41
0.036688525 -0.015464642 0.405
0.042779293 -0.015350089 0.40200001
0.048530608 -0.015159167 0.39700001
0.054399796 -0.015044615 0.39399999
0.060020119 -0.014891878 0.38999999
0.065683551 -0.014777324 0.38699999
0.071252026 -0.014662771 0.384
0.076725528 -0.014548219 0.38100001
0.082104072 -0.014433666 0.37799999
0.087387651 -0.014319113 0.375
0.092576265 -0.01420456 0.37200001
0.097405232 -0.014051823 0.368
0.10210758 -0.013899086 0.36399999
0.10697965 -0.013784532 0.361
0.11175676 -0.01366998 0.35800001
0.11643891 -0.013555427 0.35499999
0.12068227 -0.013402689 0.35100001
0.12551831 -0.013326321 0.34900001
0.13029104 -0.013249952 0.347
0.13421786 -0.013097215 0.34299999
0.13883233 -0.013020847 0.34099999
0.14253756 -0.012868109 0.33700001
0.14655496 -0.012753556 0.33399999
0.15002279 -0.01260082 0.33000001
0.153364 -0.012448082 0.32600001
0.15706486 -0.012333529 0.32300001
0.16067076 -0.012218976 0.31999999
0.16418169 -0.012104424 0.317
0.16813141 -0.012028055 0.315
0.17146824 -0.011913502 0.31200001
0.17414472 -0.011760765 0.308
0.17785703 -0.011684396 0.30599999
0.18150602 -0.011608028 0.30399999
-0 -0 0
-0 -0 0
-0 -0 0
-0 -0 0
-0 -0 0
-0 -0 0
-0.28251305 -0.01130954 0.50599998
-0.28318447 -0.011667154 0.52200001
-0.27966273 -0.011868311 0.53100002
-0.27789947 -0.012158873 0.54400003
-0.26879445 -0.012136522 0.54299998
-0.26834652 -0.012516486 0.56
-0.25623974 -0.012360031 0.55299997
-0.24838237 -0.012404732 0.55500001
-0.23830315 -0.01233768 0.55199999
-0.23330946 -0.012538837 0.56099999
-0.22523052 -0.012583539 0.56300002
-0.21478289 -0.012494136 0.55900002
-0.2029883 -0.012315329 0.551
-0.19250464 -0.012203574 0.546
-0.18116903 -0.012024768 0.53799999
-0.17072849 -0.011890662 0.53200001
-0.15986769 -0.011711855 0.52399999
-0.14926013 -0.011533048 0.51599997
-0.13972612 -0.011421294 0.51099998
-0.12983514 -0.011264838 0.50400001
-0.12064933 -0.011153083 0.49900001
-0.11139583 -0.011018978 0.493
-0.084681511 -0.0090073999 0.403
-0.067422315 -0.0077557517 0.347
-0.061573334 -0.0077110496 0.345
-0.056112949 -0.0077110496 0.345
-0.050505746 -0.0076886988 0.34400001
-0.045192182 -0.0077110496 0.345
-0.040192455 -0.0078004533 0.34900001
-0.035364125 -0.007956909 0.35600001
-0.030397726 -0.0081357164 0.36399999
-0.02517809 -0.0083145229 0.37200001
-0.020275632 -0.0087391902 0.391
-0.014699684 -0.0091191549 0.40799999
-0.0082825907 -0.0091638565 0.41
-0.0018240589 -0.0093203122 0.417
0.0048675067 -0.0094991196 0.42500001
0.011512225 -0.0094320662 0.42199999
0.018061981 -0.0093650138 0.419
0.024457838 -0.0092756106 0.41499999
0.030652318 -0.0091638565 0.41
0.036869701 -0.0090968041 0.40700001
0.04288571 -0.0090073999 0.403
0.048652854 -0.0088956458 0.398
0.054537866 -0.0088285934 0.39500001
0.060327917 -0.008761541 0.39199999
0.065853275 -0.0086721368 0.38800001
0.071437575 -0.0086050844 0.38499999
0.077128284 -0.0085603828 0.38299999
0.082321279 -0.0084709795 0.37900001
0.087620683 -0.0084039271 0.37599999
0.09282513 -0.0083368737 0.373
0.097934611 -0.0082698213 0.37
0.10266861 -0.0081804181 0.366
0.107276 -0.0080910148 0.36199999
0.11206894 -0.0080239624 0.359
0.11676691 -0.007956909 0.35600001
0.12136992 -0.0078898566 0.35299999
0.12587796 -0.0078228042 0.34999999
0.13029104 -0.0077557517 0.347
0.13460916 -0.0076886988 0.34400001
0.13923946 -0.0076439972 0.34200001
0.14296052 -0.0075545935 0.338
0.14699376 -0.0074875411 0.33500001
0.15047741 -0.0073981378 0.331
0.15383445 -0.0073087341 0.32699999
0.15755112 -0.0072416817 0.324
0.16117285 -0.0071746288 0.32100001
0.16469961 -0.0071075764 0.31799999
0.16813141 -0.0070405235 0.315
0.17091867 -0.0069511202 0.31099999
0.17471011 -0.0069064186 0.30899999
0.17843826 -0.0068617165 0.30700001
0.18150602 -0.0067946641 0.30399999
-0 -0 0
-0 -0 0
-0 -0 0
-0 -0 0
-0 -0 0
-0.2968373 -0.0033695146 0.51700002
-0.29367957 -0.0034281716 0.52600002
-0.2712495 -0.0032587182 0.5
-0.27755603 -0.003434689 0.52700001
-0.26921511 -0.003434689 0.52700001
-0.27126953 -0.0035715553 0.54799998
-0.26547137 -0.0036106599 0.55400002
-0.25438628 -0.0035780726 0.54900002
-0.24435455 -0.0035585205 0.546
-0.23873486 -0.0036041425 0.55299997
-0.23123007 -0.0036236946 0.55599999
-0.22283019 -0.0036302123 0.55699998
-0.21439867 -0.0036367297 0.55800003
-0.2040935 -0.0036106599 0.55400002
-0.1932098 -0.0035715553 0.54799998
-0.18217927 -0.0035259333 0.54100001
-0.1710494 -0.0034737936 0.53299999
-0.16078296 -0.003434689 0.52700001
-0.15012792 -0.0033825496 0.51899999
-0.14027299 -0.003343445 0.51300001
-0.13035037 -0.003297823 0.50599998
-0.1211329 -0.0032652358 0.50099999
-0.11184774 -0.0032261312 0.495
-0.1004411 -0.0031153348 0.47799999
-0.068588123 -0.002300655 0.35299999
-0.062287226 -0.0022745854 0.34900001
-0.05692618 -0.0022811028 0.34999999
-0.050946202 -0.0022615504 0.347
-0.04584714 -0.0022811028 0.34999999
-0.040768281 -0.0023071726 0.354
-0.035960153 -0.002359312 0.36199999
-0.031232828 -0.0024375212 0.37400001
-0.026734799 -0.0025743875 0.39500001
-0.022453578 -0.0028220501 0.433
-0.015852602 -0.0028676721 0.44
-0.0088078277 -0.0028416023 0.43599999
-0.0018896726 -0.0028155325 0.43200001
0.0049018655 -0.0027894629 0.428
0.011566786 -0.0027633931 0.42399999
0.018105088 -0.0027373233 0.41999999
0.024516774 -0.0027112537 0.41600001
0.030801842 -0.0026851839 0.412
0.036960293 -0.0026591141 0.40799999
0.04288571 -0.0026265269 0.403
0.048775095 -0.0026004573 0.39899999
0.054675937 -0.0025809049 0.396
0.060481813 -0.0025613527 0.39300001
0.066192731 -0.0025418003 0.38999999
0.071623124 -0.0025157304 0.38600001
0.077329665 -0.0025026957 0.384
0.082538486 -0.0024766258 0.38
0.087853722 -0.0024570737 0.377
0.09282513 -0.0024310038 0.373
0.097934611 -0.0024114514 0.37
0.10266861 -0.0023853818 0.366
0.10757234 -0.0023658294 0.36300001
0.11206894 -0.0023397598 0.359
0.11676691 -0.0023202074 0.35600001
0.12171374 -0.0023071726 0.354
0.12623762 -0.0022876202 0.35100001
0.131042 -0.0022745854 0.34900001
0.13500048 -0.0022485156 0.345
0.13923946 -0.0022289634 0.34200001
0.14338349 -0.002209411 0.33899999
0.14699376 -0.0021833412 0.33500001
0.15093201 -0.002163789 0.33199999
0.15430488 -0.0021377192 0.32800001
0.15803739 -0.0021181668 0.32499999
0.16167495 -0.0020986146 0.322
0.16521753 -0.0020790622 0.31900001
0.16813141 -0.0020529926 0.315
0.17201783 -0.0020399576 0.31299999
0.17527552 -0.0020204054 0.31
0.1790195 -0.0020073703 0.308
0.18210308 -0.0019878182 0.30500001
-0 0 0
-0 0 0
-0 0 0
-0 0 0
-0 0 0
-0.28937331 0.0046952618 0.50400001
-0.28753799 0.0047977376 0.51499999
-0.2658245 0.004564838 0.49000001
-0.26386258 0.0046673138 0.50099999
-0.27125847 0.0049467939 0.53100002
-0.26829943 0.0050492696 0.542
-0.26259622 0.0051051658 0.54799998
-0.25623974 0.0051517459 0.55299997
-0 0 0
-0 0 0
-0.23206182 0.0051983255 0.55800003
-0.22323024 0.0051983255 0.55800003
-0.21132486 0.0051237978 0.55000001
-0.2033567 0.0051424298 0.55199999
-0.19356236 0.0051144818 0.54900002
-0.18285276 0.0050585857 0.54299998
-0.17201217 0.0049933735 0.53600001
-0.16139315 0.0049281619 0.52899998
-0.15099572 0.0048629497 0.52200001
-0.14081986 0.0047977376 0.51499999
-0.1311232 0.0047418419 0.509
-0.12161646 0.0046859458 0.50300002
-0.11229964 0.0046300497 0.49700001
-0.10212212 0.0045275739 0.486
-0.069753923 0.0033444425 0.359
-0.06353654 0.0033164944 0.35600001
-0.058064703 0.0033258104 0.35699999
-0.052120756 0.0033071784 0.35499999
-0.046764083 0.0033258104 0.35699999
-0.042150255 0.0034096544 0.366
-0.037946898 0.0035587105 0.382
-0.033988666 0.0037916102 0.40700001
-0.030389683 0.0041828821 0.449
-0.023075849 0.0041456181 0.44499999
-0.015924659 0.00411767 0.442
-0.0088482313 0.0040804059 0.43799999
-0.0018984211 0.0040431423 0.43399999
0.0049133184 0.0039965622 0.42899999
0.011621346 0.0039686142 0.426
0.018191304 0.0039313501 0.42199999
0.024575708 0.0038847702 0.417
0.030876603 0.0038475061 0.41299999
0.03705088 0.0038102423 0.40900001
0.042992122 0.0037636622 0.40400001
0.049019583 0.0037357144 0.40099999
0.054675937 0.0036891343 0.396
0.060635712 0.0036705022 0.39399999
0.066192731 0.0036332384 0.38999999
0.071808681 0.0036052903 0.38699999
0.077329665 0.0035773423 0.384
0.082972899 0.0035587105 0.382
0.088086754 0.0035214464 0.37799999
0.093322851 0.0034934983 0.375
0.0981993 0.0034562345 0.37099999
0.10294913 0.0034189704 0.36700001
0.10786868 0.0033910223 0.36399999
0.11269327 0.0033630745 0.361
0.1174229 0.0033351264 0.35800001
0.12205756 0.0033071784 0.35499999
0.12659727 0.0032792306 0.352
0.131042 0.0032512825 0.34900001
0.13578309 0.0032326505 0.347
0.13964659 0.0031953866 0.34299999
0.14380644 0.0031674386 0.34
0.14743254 0.0031301745 0.336
0.15093201 0.0030929106 0.33199999
0.15477532 0.0030649626 0.329
0.15852366 0.0030370145 0.32600001
0.16217704 0.0030090667 0.32300001
0.16573545 0.0029811186 0.31999999
0.16866516 0.0029438545 0.31600001
0.1725674 0.0029252227 0.31400001
0.17640634 0.0029065907 0.31200001
0.17960072 0.0028786426 0.30899999
0.1832972 0.0028600106 0.30700001
-0 0 0
-0 0 0
-0 0 0
-0 0 0
-0 0 0
-0 0 0
-0.28865466 0.013002254 0.51700002
-0.26853701 0.012448967 0.495
-0.25543582 0.012197472 0.48500001
-0.26206326 0.012901656 0.51300001
-0.26582435 0.013505243 0.537
-0.26020029 0.013656139 0.54299998
-0.25299621 0.013731588 0.546
-0.2461447 0.013832185 0.55000001
-0.24046169 0.014008231 0.55699998
-0.23330946 0.014108829 0.56099999
-0.22082992 0.013882484 0.55199999
-0.21286176 0.013932783 0.55400002
-0.20188309 0.013781887 0.54799998
-0.1932098 0.013781887 0.54799998
-0.18318951 0.013681289 0.54400003
-0.172654 0.013530392 0.53799999
-0.16200332 0.013354346 0.53100002
-0.1518635 0.01320345 0.52499998
-0.14136674 0.013002254 0.51700002
-0.13189602 0.012876507 0.51200002
-0.12210003 0.012700461 0.505
-0.11275156 0.012549564 0.49900001
-0.10338289 0.012373518 0.49200001
-0.07169693 0.0092801386 0.36899999
-0.065142803 0.0091795409 0.36500001
-0.060179103 0.0093052881 0.37
-0.055057134 0.0094310353 0.375
-0.049645904 0.009531633 0.37900001
-0.046296183 0.01011007 0.40200001
-0.045297869 0.011468139 0.456
-0.037997156 0.01144299 0.45500001
-0.030592732 0.011367542 0.45199999
-0.023231415 0.011266944 0.44800001
-0.015996715 0.011166346 0.44400001
-0.0088684326 0.011040599 0.43900001
-0.0019027953 0.010940001 0.435
0.0049476773 0.010864553 0.43200001
0.011648626 0.010738806 0.42699999
0.018191304 0.010613059 0.42199999
0.024634643 0.010512461 0.41800001
0.030951366 0.010411863 0.414
0.037141468 0.010311265 0.41
0.043098539 0.010185518 0.405
0.049019583 0.010084921 0.40099999
0.054814007 0.0099843228 0.39700001
0.060789607 0.009934024 0.39500001
0.06653218 0.0098585756 0.39199999
0.07199423 0.0097579779 0.38800001
0.077531047 0.0096825296 0.38499999
0.082972899 0.0096070813 0.382
0.088319786 0.009531633 0.37900001
0.093322851 0.0094310353 0.375
0.09846399 0.009355587 0.37200001
0.10351016 0.0092801386 0.36899999
0.10816503 0.0091795409 0.36500001
0.11269327 0.0090789432 0.361
0.1177509 0.0090286443 0.359
0.12240139 0.008953196 0.35600001
0.12695692 0.0088777477 0.35299999
0.13141748 0.0088022994 0.34999999
0.13578309 0.0087268511 0.347
0.14005372 0.0086514028 0.34400001
0.14380644 0.008550806 0.34
0.14787133 0.0084753577 0.33700001
0.15138663 0.0083747599 0.333
0.15524577 0.0082993116 0.33000001
0.15900993 0.0082238633 0.32699999
0.16217704 0.0081232656 0.32300001
0.16573545 0.0080478173 0.31999999
0.16973266 0.0079975184 0.31799999
0.17311698 0.0079220701 0.315
0.17697173 0.0078717712 0.31299999
0.18076319 0.0078214724 0.31099999
0.1832972 0.0077208746 0.30700001
-0 0 0
-0 0 0
-0 0 0
-0 0 0
-0 0 0
-0.280761 0.020040618 0.48899999
-0.29256293 0.021475019 0.52399999
-0.2755895 0.020819293 0.50800002
-0.25754252 0.020040618 0.48899999
-0.2462271 0.019753739 0.48199999
-0.25889409 0.021434035 0.523
-0.25732514 0.022007797 0.537
-0.25067937 0.022171728 0.54100001
-0.24301194 0.022253694 0.54299998
-0.2357129 0.022376642 0.546
-0.22915065 0.022581557 0.551
-0.22163004 0.022704504 0.55400002
-0.20863527 0.022253694 0.54299998
-0.2007779 0.02233566 0.54500002
-0.19179951 0.022294676 0.54400003
-0.18285276 0.022253694 0.54299998
-0.17329584 0.022130745 0.54000002
-0.16261351 0.021843864 0.53299999
-0.15215276 0.021556985 0.52600002
-0.14218704 0.021311088 0.51999998
-0.13241124 0.02106519 0.514
-0.12282537 0.020819293 0.50800002
-0.11342942 0.020573396 0.50199997
-0.1042234 0.020327499 0.49599999
-0.07383424 0.015573487 0.38
-0.066570587 0.015286607 0.373
-0.061968215 0.01561447 0.38100001
-0.057406239 0.016024299 0.391
-0.052527726 0.016434127 0.40099999
-0.050672438 0.018032458 0.44
-0.045794558 0.018893098 0.461
-0.038164176 0.018729167 0.45699999
-0.030728098 0.018606219 0.454
-0.023283271 0.018401304 0.449
-0.015996715 0.018196389 0.44400001
-0.0089088352 0.018073441 0.44100001
-0.0019071695 0.017868526 0.43599999
0.0049476773 0.017704595 0.43200001
0.011675906 0.017540663 0.428
0.018234411 0.01733575 0.42300001
0.024752513 0.017212801 0.41999999
0.031026127 0.017007887 0.41499999
0.03723206 0.016843956 0.41100001
0.043204956 0.016639041 0.40599999
0.04926407 0.016516093 0.403
0.055090148 0.016352162 0.39899999
0.060943507 0.016229212 0.396
0.06653218 0.016065281 0.39199999
0.072365336 0.015983315 0.38999999
0.077732429 0.015819384 0.38600001
0.083190106 0.015696436 0.38299999
0.088319786 0.015532504 0.37900001
0.093571715 0.015409555 0.37599999
0.098728672 0.015286607 0.373
0.10351016 0.015122675 0.36899999
0.10816503 0.014958744 0.36500001
0.11300544 0.014835795 0.36199999
0.11807889 0.01475383 0.36000001
0.12274522 0.014630881 0.35699999
0.12695692 0.01446695 0.35299999
0.13179296 0.014384984 0.35100001
0.13578309 0.014221053 0.347
0.14005372 0.014098104 0.34400001
0.1442294 0.013975156 0.34099999
0.14787133 0.013811224 0.33700001
0.15184125 0.013688276 0.33399999
0.15571621 0.013565327 0.331
0.1594962 0.013442378 0.32800001
0.16267914 0.013278447 0.324
0.16625339 0.013155499 0.32100001
0.17026642 0.013073533 0.31900001
0.17421614 0.012991567 0.317
0.17810255 0.012909601 0.315
0.18134442 0.012786652 0.31200001
0.18389426 0.012622721 0.308
-0 0 0
-0 0 0
-0 0 0
-0 0 0
-0 0 0
-0.28650254 0.028351329 0.49900001
-0.29367957 0.02988537 0.52600002
-0.277217 0.029033126 0.51099998
-0.26438925 0.028521778 0.50199997
-0.24827048 0.027612718 0.486
-0.24206351 0.027783167 0.48899999
-0.25301242 0.029999003 0.528
-0.24141212 0.029601289 0.52100003
-0.2412218 0.030623982 0.53899997
-0.23398606 0.030794431 0.542
-0.2191695 0.029942187 0.52700001
-0.21522917 0.030567165 0.53799999
-0.20248763 0.029942187 0.52700001
-0.1993043 0.030737614 0.54100001
-0.19109435 0.030794431 0.542
-0.18150578 0.030623982 0.53899997
-0.172654 0.030567165 0.53799999
-0.1632237 0.030396717 0.53500003
-0.15302056 0.030055819 0.52899998
-0.14300735 0.029714921 0.523
-0.13292646 0.029317208 0.51599997
-0.12330893 0.02897631 0.50999999
-0.11410729 0.028692227 0.505
-0.10464366 0.028294513 0.498
-0.075777248 0.022158355 0.38999999
-0.068533793 0.021817457 0.384
-0.063269384 0.022101538 0.389
-0.058580793 0.022669701 0.39899999
-0.055147562 0.023919659 0.421
-0.053897049 0.026590025 0.46799999
-0.045993231 0.026305944 0.463
-0.038331199 0.026078679 0.45899999
-0.030795781 0.025851414 0.45500001
-0.023386983 0.025624149 0.45100001
-0.016104802 0.025396883 0.447
-0.0089290366 0.025112802 0.442
-0.0019115438 0.024828719 0.43700001
0.0049705831 0.02465827 0.43399999
0.011703187 0.024374189 0.42899999
0.018277518 0.024090108 0.42399999
0.024752513 0.023862842 0.41999999
0.031100888 0.023635577 0.41600001
0.037322648 0.023408312 0.412
0.043417789 0.023181047 0.40799999
0.049386311 0.022953782 0.40400001
0.055228218 0.022726517 0.40000001
0.061097406 0.022556068 0.39700001
0.066701904 0.022328803 0.39300001
0.072550885 0.022215171 0.391
0.077933803 0.021987906 0.38699999
0.083407313 0.021817457 0.384
0.088785857 0.021647008 0.38100001
0.094069436 0.021476559 0.37799999
0.098728672 0.021192478 0.373
0.10379067 0.021022027 0.37
0.10875771 0.020851579 0.36700001
0.11362978 0.02068113 0.36399999
0.11840689 0.020510681 0.361
0.12308904 0.020340232 0.35800001
0.12767622 0.020169783 0.35499999
0.13216844 0.019999335 0.352
0.1365657 0.019828886 0.34900001
0.14046086 0.019601621 0.345
0.14465237 0.019431172 0.34200001
0.14831011 0.019203907 0.338
0.15229586 0.019033458 0.33500001
0.15571621 0.018806193 0.331
0.1594962 0.018635744 0.32800001
0.16368334 0.018522112 0.32600001
0.16677131 0.018294847 0.322
0.17133391 0.01823803 0.32100001
0.17531529 0.018124398 0.31900001
0.17866795 0.017953949 0.31600001
0.18192565 0.0177835 0.31299999
0.18449132 0.017556235 0.30899999
-0 0 0
-0 0 0
-0 0 0
-0 0 0
-0.30325001 0.03734196 0.514
-0.28707668 0.036324862 0.5
-0.27916309 0.036324862 0.5
-0.27830198 0.037269309 0.51300001
-0.26333591 0.036324862 0.5
-0.25388977 0.036106914 0.49700001
-0.24453859 0.035888962 0.49399999
-0.23384482 0.035453066 0.48800001
-0.2441923 0.038286407 0.52700001
-0.23853658 0.038722303 0.53299999
-0.23139581 0.038940251 0.53600001
-0.22291243 0.038940251 0.53600001
-0.214029 0.038867604 0.53500003
-0.2063299 0.039012901 0.537
-0.19819909 0.039085552 0.53799999
-0.18897893 0.038940251 0.53600001
-0.18015879 0.038867604 0.53500003
-0.1710494 0.038722303 0.53299999
-0.16352879 0.038940251 0.53600001
-0.15359908 0.038577005 0.53100002
-0.14328079 0.038068455 0.52399999
-0.13369928 0.037705205 0.51899999
-0.1237925 0.037196659 0.51200002
-0.11433324 0.036760762 0.50599998
-0.10506392 0.036324862 0.5
-0.075777248 0.028333392 0.38999999
-0.070140056 0.028551342 0.39300001
-0.065221138 0.029132539 0.40099999
-0.060929898 0.030149635 0.41499999
-0.061566159 0.03414537 0.47
-0.054127377 0.03414537 0.47
-0.046191908 0.033782121 0.465
-0.038498219 0.033491522 0.461
-0.030863464 0.033128273 0.456
-0.023386983 0.032765027 0.45100001
-0.016104802 0.032474428 0.447
-0.0089492379 0.03218383 0.44299999
-0.0019202923 0.031893231 0.43900001
0.004993489 0.031675279 0.43599999
0.011730467 0.031239381 0.43000001
0.018363733 0.030948782 0.426
0.024811447 0.030585535 0.421
0.031175651 0.030294936 0.417
0.037503824 0.030076986 0.414
0.043524206 0.029713737 0.40900001
0.049630798 0.029495789 0.40599999
0.055504359 0.02920519 0.40200001
0.061251301 0.028914591 0.398
0.067041352 0.028696641 0.39500001
0.072550885 0.028406043 0.391
0.078135185 0.028188093 0.38800001
0.083841726 0.028042793 0.38600001
0.089018889 0.027752195 0.382
0.094318293 0.027534246 0.37900001
0.09925805 0.027243648 0.375
0.10407119 0.026953047 0.37099999
0.10905405 0.026735099 0.368
0.11394195 0.026517149 0.36500001
0.11873489 0.026299201 0.36199999
0.12343286 0.026081251 0.359
0.12767622 0.025790652 0.35499999
0.13216844 0.025572702 0.352
0.1365657 0.025354754 0.34900001
0.14127512 0.025209455 0.347
0.14465237 0.024846205 0.34200001
0.1487489 0.024628257 0.33899999
0.15275048 0.024410307 0.336
0.15618666 0.024119709 0.33199999
0.15998247 0.023901759 0.329
0.16368334 0.023683811 0.32600001
0.16780715 0.023538511 0.324
0.17240141 0.023465861 0.32300001
0.17586486 0.023247913 0.31999999
0.17923336 0.023029963 0.317
0.18250689 0.022812014 0.31400001
0.18568544 0.022594064 0.31099999
-0 0 0
-0 0 0
-0 0 0
-0 0 0
-0 0 0
-0.28707668 0.044241577 0.5
-0.2746965 0.043533713 0.49200001
-0.26799449 0.043710679 0.49399999
-0.26228255 0.044064611 0.498
-0.25491145 0.044153094 0.49900001
-0.24651867 0.044064611 0.498
-0.2348032 0.043356746 0.49000001
-0.23075478 0.044064611 0.498
-0.2224253 0.043976128 0.49700001
-0.2154226 0.044153094 0.49900001
-0.22000127 0.046807591 0.52899998
-0.21282884 0.04707304 0.53200001
-0.20440876 0.04707304 0.53200001
-0.19414671 0.046630625 0.52700001
-0.18686348 0.046896074 0.52999997
-0.17948531 0.047161523 0.53299999
-0.17201217 0.047426973 0.53600001
-0.16474915 0.047780905 0.54000002
-0.15417762 0.047161523 0.53299999
-0.14382766 0.046542142 0.52600002
-0.13395689 0.046011243 0.51999998
-0.12427606 0.045480344 0.514
-0.11478515 0.044949442 0.50800002
-0.10443353 0.043976128 0.49700001
-0.076748744 0.034950849 0.39500001
-0.07174632 0.03557023 0.40200001
-0.067172892 0.036543544 0.41299999
-0.068564489 0.041321635 0.46700001
-0.062352113 0.042117983 0.47600001
-0.05424254 0.041675568 0.47099999
-0.046291243 0.041233152 0.46599999
-0.038748749 0.041056186 0.46399999
-0.030998832 0.040525287 0.458
-0.023490695 0.040082872 0.45300001
-0.016176859 0.039728936 0.449
-0.0089694392 0.03928652 0.44400001
-0.0019290408 0.039021071 0.44100001
0.005004942 0.038667139 0.43700001
0.011785027 0.038224723 0.43200001
0.018449947 0.037870791 0.428
0.024988251 0.037516858 0.42399999
0.031325173 0.037074443 0.419
0.037594415 0.036720511 0.41499999
0.043630622 0.036278095 0.41
0.049753044 0.036012646 0.40700001
0.0557805 0.035747197 0.40400001
0.061405201 0.035304781 0.39899999
0.067380801 0.035127815 0.39700001
0.072921991 0.034773882 0.39300001
0.078336567 0.034419946 0.389
0.083841726 0.034154497 0.38600001
0.089251921 0.033889048 0.38299999
0.094567157 0.033623599 0.38
0.09952274 0.033269666 0.37599999
0.10463222 0.033004217 0.373
0.10935039 0.032650284 0.36899999
0.11425412 0.032384835 0.366
0.11906289 0.032119386 0.36300001
0.12377669 0.031853937 0.36000001
0.12839553 0.031588487 0.35699999
0.13254392 0.031234555 0.35299999
0.136957 0.030969106 0.34999999
0.14127512 0.030703656 0.347
0.14549828 0.030438205 0.34400001
0.14918768 0.030084273 0.34
0.1536597 0.029907307 0.338
0.15712753 0.029553374 0.33399999
0.16046874 0.029199442 0.33000001
0.16468753 0.029022476 0.32800001
0.16936092 0.028933993 0.32699999
0.17346892 0.028757026 0.32499999
0.17696403 0.028491577 0.322
0.18036416 0.028226128 0.31900001
0.18308811 0.027872194 0.315
0 0 0
-0 0 0
-0 0 0
-0 0 0
-0 0 0
-0 0 0
-0.28018686 0.050906494 0.48800001
-0.27246317 0.050906494 0.48800001
-0.2636545 0.050697863 0.486
-0.25859585 0.051219445 0.491
-0 0 0
-0.24503361 0.051636711 0.495
-0.23624077 0.05142808 0.493
-0.23353495 0.052575562 0.50400001
-0.21302705 0.049654696 0.47600001
-0.20376647 0.04923743 0.472
-0.19962308 0.050071962 0.47999999
-0.20322753 0.052992828 0.50800002
-0.20095073 0.054557577 0.523
-0.1926731 0.054557577 0.523
-0.19215207 0.056852542 0.54500002
-0.18116903 0.056122325 0.53799999
-0.17425859 0.056643907 0.54299998
-0.16566442 0.056643907 0.54299998
-0.15504541 0.05591369 0.53600001
-0.14464797 0.055183474 0.52899998
-0.13447212 0.054453261 0.52200001
-0.12475963 0.05382736 0.51599997
-0.1150111 0.053097144 0.509
-0.094557524 0.046942465 0.44999999
-0.078108855 0.041935269 0.40200001
-0.073709525 0.043082751 0.41299999
-0.073516093 0.0471511 0.45199999
-0.070619956 0.050176278 0.48100001
-0.062614098 0.049863331 0.47799999
-0.054357708 0.04923743 0.472
-0.04648992 0.048820164 0.46799999
-0.038748749 0.048402898 0.46399999
-0.031134197 0.047985632 0.46000001
-0.023594406 0.047464047 0.45500001
-0.016212888 0.046942465 0.44999999
-0.0090098428 0.046525199 0.44600001
-0.001933415 0.046107933 0.442
0.005004942 0.045586351 0.43700001
0.011812307 0.045169082 0.433
0.018493054 0.044751815 0.42899999
0.025047185 0.044334549 0.42500001
0.031399935 0.043812968 0.41999999
0.037775591 0.043500017 0.417
0.043843452 0.042978436 0.412
0.049875285 0.04256117 0.40799999
0.055918571 0.042248219 0.405
0.061866894 0.041935269 0.40200001
0.067380801 0.041413687 0.39700001
0.073293097 0.041205052 0.39500001
0.078739323 0.040787786 0.391
0.08427614 0.040474836 0.38800001
0.089717992 0.040161885 0.38499999
0.094816014 0.039744619 0.38100001
0.099787429 0.039327353 0.377
0.10491274 0.039014403 0.37400001
0.10964674 0.038597137 0.37
0.11456629 0.03828419 0.36700001
0.11939088 0.03797124 0.36399999
0.12446433 0.037762605 0.36199999
0.12875518 0.037345339 0.35800001
0.1329194 0.036928073 0.354
0.13773961 0.036719438 0.352
0.14168225 0.036302172 0.34799999
0.14592125 0.035989225 0.345
0.15006526 0.035676274 0.34200001
0.15411432 0.035363324 0.33899999
0.15712753 0.034841742 0.33399999
0.16144128 0.034633107 0.33199999
0.16569172 0.034424476 0.33000001
0.16987884 0.034215841 0.32800001
0.17346892 0.033902891 0.32499999
0.17696403 0.033589941 0.322
0.17979877 0.033172674 0.31799999
0 0 0
0 0 0
-0 0 0
-0 0 0
-0 0 0
-0 0 0
-0 0 0
-0 0 0
-0.27190486 0.05851306 0.48699999
-0.26311201 0.05827276 0.48500001
-0.25438249 0.058032461 0.48300001
-0.24878132 0.05851306 0.48699999
-0.24503361 0.05947426 0.495
-0.2348032 0.058873512 0.49000001
-0.23214486 0.060195159 0.50099999
-0.2125795 0.057071261 0.47499999
-0.20247133 0.056350362 0.46900001
-0.20253424 0.05851306 0.48699999
-0.20322753 0.061036211 0.50800002
-0.19787692 0.061877262 0.51499999
-0.1963571 0.064039961 0.53299999
-0.19462009 0.066322811 0.55199999
-0.18150578 0.064760864 0.53899997
-0.17650501 0.066082515 0.55000001
-0.16657969 0.065601915 0.546
-0.1559132 0.064760864 0.53899997
-0.14546828 0.063919812 0.53200001
-0.13498734 0.062958613 0.52399999
-0.12524319 0.06223771 0.51800001
-0.11207369 0.059594411 0.49599999
-0.085942283 0.049141359 0.40900001
-0.080051854 0.04950181 0.412
-0.080313042 0.054067511 0.44999999
-0.079371363 0.058633212 0.48800001
-0.071060412 0.058152612 0.484
-0.062614098 0.057431709 0.47799999
-0.054588035 0.056951109 0.47400001
-0.046688594 0.05647051 0.47
-0.038915768 0.05598991 0.46599999
-0.03120188 0.055389158 0.461
-0.023646262 0.054788411 0.456
-0.016248917 0.054187659 0.45100001
-0.0090502454 0.053827211 0.44800001
-0.0019421634 0.053346608 0.44400001
0.0050393008 0.052866008 0.44
0.011839587 0.052145109 0.43399999
0.018536162 0.051664509 0.43000001
0.025106119 0.051183909 0.426
0.031549457 0.050703309 0.42199999
0.037866183 0.05022271 0.41800001
0.044056285 0.04974211 0.414
0.049997527 0.049141359 0.40900001
0.056056641 0.048780911 0.40599999
0.061866894 0.048300307 0.40200001
0.067720249 0.047939859 0.39899999
0.073478647 0.047579408 0.396
0.078940704 0.047098808 0.39199999
0.084493347 0.04673836 0.389
0.089951023 0.046377908 0.38600001
0.095064878 0.045897309 0.382
0.1003168 0.045536857 0.37900001
0.10519325 0.045056257 0.375
0.11023942 0.044695809 0.37200001
0.11487846 0.04421521 0.368
0.11971888 0.043854758 0.36500001
0.12480816 0.043614458 0.36300001
0.12911482 0.043133859 0.359
0.13404584 0.042893559 0.35699999
0.13813092 0.042412959 0.35299999
0.14249653 0.042052507 0.34999999
0.1463442 0.041571908 0.34599999
0.15006526 0.041091308 0.34200001
0.15411432 0.040730856 0.33899999
0.15806842 0.040370408 0.336
0.16192755 0.040009957 0.333
0.16619381 0.039769657 0.331
0.17039678 0.039529357 0.329
0.17400266 0.039168905 0.32600001
0.1775136 0.038808458 0.32300001
0.17979877 0.038207706 0.31799999
0 0 0
0 0 0
-0 0 0
-0 0 0
-0 0 0
-0 0 0
-0 0 0
-0 0 0
-0 0 0
-0.26311201 0.065951973 0.48500001
-0.25385579 0.065544024 0.48199999
-0.2462271 0.065544024 0.48199999
-0.24156849 0.066359922 0.48800001
-0.23336563 0.066223942 0.48699999
-0.22612114 0.066359922 0.48800001
-0.21481718 0.065272056 0.47999999
-0.20678842 0.065136075 0.479
-0.2058613 0.067311808 0.495
-0.20162731 0.068535663 0.50400001
-0.19941382 0.070575416 0.51899999
-0.2007779 0.074110985 0.54500002
-0.19497265 0.075198852 0.55299997
-0.18184252 0.073431067 0.54000002
-0.17778869 0.075334832 0.55400002
-0.16749497 0.074654914 0.54900002
-0.15678099 0.073703036 0.542
-0.14601515 0.072615162 0.53399998
-0.13550256 0.071527295 0.52600002
-0.11895686 0.066903859 0.49200001
-0.093997292 0.056569118 0.41600001
-0.088253684 0.057113051 0.41999999
-0.093264297 0.065272056 0.47999999
-0.088522822 0.067447796 0.49599999
-0.079696655 0.066631891 0.49000001
-0.071354046 0.066087961 0.486
-0.062876076 0.065272056 0.47999999
-0.054703202 0.064592138 0.47499999
-0.046787933 0.064048208 0.47099999
-0.038999278 0.063504271 0.46700001
-0.031269561 0.062824354 0.46200001
-0.023698118 0.06214444 0.45699999
-0.016320974 0.061600506 0.45300001
-0.0090704467 0.061056569 0.449
-0.0019465378 0.060512636 0.44499999
0.0050507537 0.059968702 0.44100001
0.011894148 0.059288785 0.43599999
0.018622376 0.058744851 0.43200001
0.025223989 0.058200918 0.428
0.031698983 0.057656985 0.42399999
0.037956771 0.056977067 0.419
0.044162702 0.056433134 0.41499999
0.050242014 0.0558892 0.41100001
0.056332782 0.055481248 0.40799999
0.062174689 0.054937314 0.40400001
0.068059705 0.054529365 0.40099999
0.073664203 0.053985432 0.39700001
0.079343461 0.053577483 0.39399999
0.084710553 0.053033546 0.38999999
0.089951023 0.052489612 0.38600001
0.0955626 0.052217647 0.384
0.10058149 0.051673714 0.38
0.10575428 0.051265761 0.377
0.11053576 0.050721828 0.373
0.1155028 0.050313879 0.37
0.12037487 0.049905926 0.36700001
0.12515198 0.049497977 0.36399999
0.12983413 0.049090028 0.361
0.13442132 0.048682075 0.35800001
0.13852222 0.048138142 0.354
0.14290366 0.047730193 0.35100001
0.14676717 0.047186259 0.347
0.15094283 0.046778306 0.34400001
0.15456894 0.046234373 0.34
0.15853886 0.045826424 0.33700001
0.16290009 0.045554455 0.33500001
0.167198 0.045282491 0.333
0.17091469 0.044874541 0.33000001
0.17400266 0.044330604 0.32600001
0.1775136 0.043922655 0.32300001
0 0 0
0 0 0
0 0 0
-0 0 0
-0 0 0
-0 0 0
-0 0 0
-0 0 0
-0 0 0
-0 0 0
-0.26094201 0.073023923 0.48100001
-0.25438249 0.073327556 0.48300001
-0.2452054 0.072872102 0.47999999
-0.23760836 0.072872102 0.47999999
-0.23432401 0.074238457 0.48899999
-0.22241424 0.072872102 0.47999999
-0.21347457 0.072416656 0.477
-0.20808356 0.073175736 0.48199999
-0.2058613 0.075149357 0.495
-0.20722808 0.078641146 0.51800001
-0.20325609 0.080311134 0.52899998
-0.20630389 0.085017458 0.56
-0.1956778 0.08425837 0.55500001
-0.18723045 0.084410191 0.55599999
-0.17907237 0.084713824 0.55800003
-0.16810516 0.083651103 0.551
-0.15735951 0.08258839 0.54400003
-0.1441011 0.080007501 0.52700001
-0.11386336 0.067103066 0.442
-0.10299923 0.06467399 0.426
-0.10393931 0.069835767 0.46000001
-0.10653481 0.076971158 0.50700003
-0.097733214 0.076363891 0.50300002
-0.089058243 0.075756624 0.49900001
-0.080184594 0.074845724 0.493
-0.071647689 0.074086644 0.48800001
-0.063269056 0.073327556 0.48300001
-0.054933529 0.072416656 0.477
-0.046986606 0.071809389 0.47299999
-0.039166301 0.071202122 0.46900001
-0.031404927 0.070443034 0.46399999
-0.02380183 0.069683954 0.45899999
-0.016429059 0.0692285 0.456
-0.0091108494 0.068469413 0.45100001
-0.0019552861 0.067862146 0.447
0.0050736596 0.067254879 0.44299999
0.011921428 0.066343978 0.43700001
0.018665485 0.065736711 0.433
0.025282923 0.065129444 0.42899999
0.031773746 0.064522177 0.42500001
0.038047358 0.063763089 0.41999999
0.044269118 0.063155822 0.41600001
0.05036426 0.062548555 0.412
0.056470852 0.062093105 0.40900001
0.062482484 0.061637655 0.40599999
0.068229429 0.061030388 0.40200001
0.074035302 0.060574938 0.39899999
0.079746217 0.060119487 0.396
0.085144967 0.05951222 0.39199999
0.090650126 0.05905677 0.389
0.095811464 0.058449503 0.38499999
0.10111087 0.057994049 0.382
0.10603479 0.057386782 0.37799999
0.11112845 0.056931332 0.375
0.11581497 0.056324065 0.37099999
0.12070287 0.055868614 0.368
0.12549581 0.055413164 0.36500001
0.13055342 0.055109531 0.36300001
0.13517226 0.05465408 0.36000001
0.13930483 0.054046813 0.35600001
0.14331079 0.053439543 0.352
0.14719012 0.052832276 0.34799999
0.15138163 0.052376825 0.345
0.15502355 0.051769558 0.34099999
0.15947974 0.051465925 0.33899999
0.16338636 0.051010475 0.336
0.1677001 0.050706841 0.33399999
0.17143261 0.050251391 0.331
0.17453642 0.04964412 0.32699999
0.17806318 0.04918867 0.324
0 0 0
0 0 0
0 0 0
-0 0 0
-0 0 0
-0 0 0
-0 0 0
-0 0 0
-0 0 0
-0 0 0
-0 0 0
-0.25227579 0.080304503 0.479
-0.24316204 0.079801552 0.47600001
-0.24008344 0.081310406 0.48500001
-0.22857372 0.079969205 0.477
-0.22380432 0.0809751 0.48300001
-0.2175024 0.081478052 0.486
-0.21196893 0.082316309 0.491
-0.22249655 0.08969292 0.53500003
-0.21802954 0.09136942 0.54500002
-0.20594567 0.089860573 0.53600001
-0.2077775 0.094554782 0.56400001
-0.19638294 0.093381226 0.55699998
-0.18992442 0.094554782 0.56400001
-0.18003511 0.09405183 0.56099999
-0.16841024 0.092542976 0.55199999
-0.13797884 0.079969205 0.477
-0.12031211 0.073766142 0.44
-0.13035037 0.084831059 0.50599998
-0.1264521 0.087681115 0.523
-0.1170447 0.086842865 0.51800001
-0.10779557 0.086004615 0.51300001
-0.098510414 0.084998712 0.50700003
-0.089236714 0.083825156 0.5
-0.080509886 0.082986906 0.495
-0.071941324 0.082148656 0.49000001
-0.063400045 0.081142753 0.484
-0.055279024 0.080472156 0.47999999
-0.047185279 0.079633899 0.47499999
-0.039333321 0.078963302 0.47099999
-0.031472612 0.077957399 0.465
-0.023957398 0.077454448 0.46200001
-0.016465088 0.076616198 0.45699999
-0.0091512529 0.075945593 0.45300001
-0.0019596603 0.075107343 0.44800001
0.0050851125 0.074436739 0.44400001
0.011975988 0.073598489 0.43900001
0.018708592 0.072760239 0.43399999
0.025400791 0.072257288 0.43099999
0.031848505 0.071419038 0.426
0.038228538 0.070748433 0.42199999
0.044481952 0.070077837 0.41800001
0.050730988 0.069574885 0.41499999
0.056746993 0.068904281 0.41100001
0.062636383 0.068233676 0.40700001
0.068568878 0.067730732 0.40400001
0.074220859 0.067060128 0.40000001
0.079746217 0.066389523 0.396
0.085362166 0.065886572 0.39300001
0.090883158 0.065383621 0.38999999
0.096060321 0.064713024 0.38600001
0.10137556 0.064210072 0.38299999
0.10631531 0.063539468 0.37900001
0.11142479 0.063036516 0.37599999
0.11643931 0.062533572 0.373
0.12135886 0.062030617 0.37
0.12618345 0.061527666 0.36700001
0.13091308 0.061024714 0.36399999
0.13517226 0.060354114 0.36000001
0.13969614 0.059851162 0.35699999
0.14371791 0.059180561 0.35299999
0.14803605 0.05867761 0.34999999
0.15182041 0.058007009 0.34599999
0.15547816 0.057336409 0.34200001
0.15995018 0.05700111 0.34
0.1643589 0.056665808 0.338
0.1677001 0.055995207 0.33399999
0.17195053 0.055659905 0.33199999
0.17507017 0.054989304 0.32800001
0 0 0
0 0 0
0 0 0
0 0 0
-0 0 0
-0 0 0
-0 0 0
-0 0 0
-0 0 0
-0 0 0
-0 0 0
-0 0 0
-0.25227579 0.087888718 0.479
-0.24265118 0.087154783 0.47499999
-0.23810337 0.088255681 0.48100001
-0.2348032 0.089907035 0.49000001
-0.21963406 0.086971298 0.47400001
-0.21123689 0.086604327 0.472
-0.22664702 0.096328966 0.52499998
-0.22748713 0.10036561 0.54699999
-0.22163004 0.10165 0.55400002
-0.20940372 0.099998645 0.54500002
-0.20925109 0.10421877 0.56800002
-0.19744067 0.1027509 0.56
-0.19194488 0.10458574 0.56999999
-0.18131879 0.10366832 0.565
-0.16505425 0.099264711 0.54100001
-0.15764879 0.099998645 0.54500002
-0.14792921 0.099264711 0.54100001
-0.13782103 0.098163806 0.53500003
-0.12766102 0.096879423 0.528
-0.11794852 0.095778517 0.52200001
-0.10821583 0.094494134 0.51499999
-0.098899022 0.093393229 0.509
-0.089772135 0.092292324 0.50300002
-0.080835178 0.091191426 0.49700001
-0.072234966 0.090274006 0.49200001
-0.06366203 0.089173101 0.486
-0.055509351 0.088439167 0.48199999
-0.047383957 0.087521747 0.477
-0.039500341 0.086787812 0.47299999
-0.031675663 0.085870393 0.46799999
-0.024061108 0.085136458 0.46399999
-0.016573174 0.084402524 0.46000001
-0.0091916556 0.083485104 0.45500001
-0.0019684089 0.082567684 0.44999999
0.0050965655 0.081650272 0.44499999
0.012003268 0.080732852 0.44
0.018794807 0.079998918 0.43599999
0.025459727 0.079264984 0.43200001
0.031998031 0.078531042 0.428
0.038409714 0.077797107 0.42399999
0.044694781 0.077063173 0.41999999
0.050853234 0.076329239 0.41600001
0.056885064 0.075595304 0.412
0.062944174 0.075044855 0.40900001
0.068738602 0.074310921 0.405
0.074591964 0.073760465 0.40200001
0.08014898 0.07302653 0.398
0.085579373 0.072292596 0.39399999
0.091349222 0.071925633 0.39199999
0.096558042 0.071191698 0.38800001
0.10164025 0.070457764 0.384
0.10659583 0.069723822 0.38
0.11201748 0.069356859 0.37799999
0.11675148 0.068622924 0.37400001
0.12168686 0.068072468 0.37099999
0.12652728 0.067522019 0.368
0.13127273 0.06697157 0.36500001
0.13554774 0.066237636 0.361
0.13969614 0.065503702 0.35699999
0.14453219 0.065136731 0.35499999
0.148459 0.064402796 0.35100001
0.1522592 0.063668862 0.347
0.15638739 0.063118413 0.34400001
0.16042063 0.062567957 0.34099999
0.1643589 0.062017508 0.338
0.16820219 0.061467055 0.33500001
0.17195053 0.060916606 0.33199999
0 0 0
0 0 0
0 0 0
0 0 0
0 0 0
-0 0 0
-0 0 0
-0 0 0
-0 0 0
-0 0 0
-0 0 0
-0 0 0
-0 0 0
-0 0 0
-0.24265118 0.09467566 0.47499999
-0.23711334 0.095472932 0.479
-0.23528239 0.09786474 0.491
-0.21963406 0.094476342 0.47400001
-0.22555804 0.10045586 0.50400001
-0.23269095 0.10743196 0.53899997
-0.22998242 0.1102224 0.55299997
-0.22283019 0.11101967 0.55699998
-0.21439867 0.11121899 0.55800003
-0.20961949 0.11341148 0.56900001
-0.20131896 0.11381011 0.57099998
-0.19362861 0.11460738 0.57499999
-0.18196063 0.11301284 0.56699997
-0.17115606 0.11181694 0.56099999
-0.15996289 0.1102224 0.55299997
-0.14929639 0.10882718 0.546
-0.13885148 0.10743196 0.53899997
-0.12862813 0.10603675 0.53200001
-0.11840043 0.1044422 0.52399999
-0.10884621 0.1032463 0.51800001
-0.099287622 0.10185108 0.51099998
-0.090129077 0.10065518 0.505
-0.081323117 0.099658594 0.5
-0.07238178 0.098263368 0.493
-0.064055003 0.097466104 0.48899999
-0.055739682 0.096469514 0.484
-0.04758263 0.095472932 0.479
-0.03966736 0.09467566 0.47499999
-0.031811029 0.093679078 0.47
-0.024112964 0.092682488 0.465
-0.016609203 0.091885224 0.461
-0.0092320582 0.091087952 0.45699999
-0.0019771573 0.09009137 0.45199999
0.0051194718 0.08909478 0.447
0.012085109 0.088297509 0.44299999
0.018837914 0.087101609 0.43700001
