# .PCD v0.7 - Point Cloud Data file format
VERSION 0.7
FIELDS x y z
SIZE 4 4 4
TYPE F F F
COUNT 1 1 1
WIDTH 1384
HEIGHT 1
VIEWPOINT 0 0 0 1 0 0 0
POINTS 1384
DATA ascii
0.20425268 0.33439839 0.30310145
0.11189477 0.30730399 -0.029970758
0.20425268 0.33439839 0.30310145
0.20425268 0.33439839 0.30310145
0.20425268 0.33439839 0.30310145
0.20425268 0.33439839 0.30310145
0.20425268 0.33439839 0.30310145
0.1578328 0.31399935 0.045897983
0.16454113 0.31532586 0.061595898
0.16897228 0.31570509 0.065383337
0.17301336 0.31592619 0.067186207
0.17757125 0.31653455 0.073973283
0.18150708 0.31682956 0.076783389
0.18501048 0.31681442 0.075607076
0.18840832 0.31664607 0.072432056
0.19179541 0.31632629 0.067253605
0.19548848 0.3163144 0.066067852
0.1991708 0.31615099 0.062878691
0.20294261 0.3159135 0.058683079
0.20687214 0.31545174 0.051473685
0.21146905 0.31371513 0.027197352
0.21854855 0.30891922 -0.038283717
0.20425268 0.33439839 0.30310145
0.20425268 0.33439839 0.30310145
0.23332801 0.31030947 -0.0239894
0.20425268 0.33439839 0.30310145
0.24360144 0.31048694 -0.024500601
0.20425268 0.33439839 0.30310145
0.20425268 0.33439839 0.30310145
0.20425268 0.33439839 0.30310145
0.20425268 0.33439839 0.30310145
0.20425268 0.33439839 0.30310145
0.20425268 0.33439839 0.30310145
0.20425268 0.33439839 0.30310145
0.20425268 0.33439839 0.30310145
0.20425268 0.33439839 0.30310145
0.20425268 0.33439839 0.30310145
0.29951549 0.31160405 -0.025278922
0.30430987 0.31176251 -0.024515474
0.30939919 0.31185043 -0.024768716
0.31448847 0.31193832 -0.025021957
0.31921962 0.3120957 -0.024255423
0.3246671 0.31211415 -0.025528438
0.32897687 0.3123399 -0.023738924
0.33403453 0.31242728 -0.023990594
0.33867085 0.31258303 -0.023219343
0.34327558 0.31273824 -0.022446459
0.34784868 0.31289291 -0.021672063
0.35239017 0.31304702 -0.020896062
0.35738462 0.3131333 -0.021144584
0.36237907 0.31321955 -0.021393105
0.36737359 0.31330582 -0.021641627
0.37130404 0.31352502 -0.019833241
0.37571907 0.31367695 -0.019050948
-0.037387371 0.29872739 -0.029677402
-0.032619148 0.29871845 -0.030914091
-0.026481718 0.29891577 -0.030220062
-0.021028906 0.29900995 -0.030491389
-0.014938876 0.29920644 -0.029795026
-0.0095018446 0.29930034 -0.03006557
-0.0034592599 0.29949602 -0.029366788
0.0019619465 0.29958966 -0.029636543
0.0085310787 0.29988572 -0.027964564
0.013920695 0.29997882 -0.02823275
0.019852653 0.30017257 -0.027528491
0.025226459 0.3002654 -0.027795888
0.03060025 0.30035821 -0.028063286
0.036468983 0.30055091 -0.02735588
0.041347846 0.30054387 -0.028598079
0.046721637 0.30063668 -0.028865477
0.052095443 0.30072951 -0.029132875
0.05790095 0.30092111 -0.028422324
0.063258953 0.30101365 -0.028688936
0.069017045 0.30120438 -0.027976029
0.074359231 0.30129668 -0.028241854
0.079701416 0.30138895 -0.02850768
0.20425268 0.33439839 0.30310145
0.091059551 0.30176771 -0.027073994
0.096049063 0.30176261 -0.028321728
0.10168071 0.30195117 -0.027602497
0.10670183 0.30194661 -0.028851805
0.11202821 0.30203861 -0.029116843
0.20425268 0.33439839 0.30310145
0.20425268 0.33439839 0.30310145
0.20425268 0.33439839 0.30310145
0.20425268 0.33439839 0.30310145
0.20425268 0.33439839 0.30310145
0.15829301 0.31014144 0.048535321
0.16463734 0.31152913 0.062211633
0.16891968 0.31187698 0.064996831
0.17323861 0.31231678 0.068779625
0.17766233 0.31294096 0.074556075
0.18159696 0.31328282 0.077358581
0.18501677 0.31315932 0.075189553
0.18849978 0.31303686 0.073017381
0.19194123 0.31273112 0.068848424
0.19558233 0.31261143 0.066668384
0.19928662 0.31249285 0.064485215
0.20304419 0.31219253 0.060300529
0.20694986 0.31171224 0.054109607
0.21141814 0.30996349 0.033898722
0.21893784 0.30306354 -0.043431442
0.2234745 0.30460265 -0.027666355
0.20425268 0.33439839 0.30310145
0.20425268 0.33439839 0.30310145
0.20425268 0.33439839 0.30310145
0.20425268 0.33439839 0.30310145
0.20425268 0.33439839 0.30310145
0.20425268 0.33439839 0.30310145
0.20425268 0.33439839 0.30310145
0.20425268 0.33439839 0.30310145
0.20425268 0.33439839 0.30310145
0.20425268 0.33439839 0.30310145
0.20425268 0.33439839 0.30310145
0.20425268 0.33439839 0.30310145
0.20425268 0.33439839 0.30310145
0.20425268 0.33439839 0.30310145
0.29993871 0.3064712 -0.025474604
0.30474848 0.30664557 -0.024714507
0.30985358 0.30673376 -0.024968535
0.31495869 0.30682194 -0.025222562
0.31970528 0.30699521 -0.024459289
0.32479459 0.30708313 -0.024712531
0.3294937 0.30725557 -0.023946958
0.33456722 0.30734321 -0.024199413
0.33921894 0.30751485 -0.023431422
0.34383905 0.30768594 -0.022661919
0.34842759 0.3078565 -0.021890782
0.35298449 0.30802652 -0.021118131
0.35799474 0.30811307 -0.02136744
0.36300504 0.30819958 -0.021616749
0.3674987 0.30836853 -0.020840922
0.37196076 0.30853689 -0.020063525
0.3763912 0.3087047 -0.019284554
-0.038650751 0.29309896 -0.030727299
-0.032482147 0.29331243 -0.03003737
-0.02701351 0.29340687 -0.030309487
-0.020892292 0.29361954 -0.029617202
-0.014802665 0.29383165 -0.028923372
-0.009986639 0.29380792 -0.030159861
-0.0039286166 0.29401949 -0.029464457
0.0020977557 0.29423052 -0.028767426
0.007518962 0.29432416 -0.029037181
0.013497949 0.29453433 -0.028337816
0.01944533 0.29474401 -0.027636882
0.024834931 0.29483712 -0.027905066
0.030224532 0.29493019 -0.028173249
0.035614133 0.29502329 -0.028441433
0.041482463 0.29523161 -0.027736561
0.04639335 0.29520947 -0.0289778
0.051782936 0.29530257 -0.029245984
0.057603851 0.29551005 -0.028538754
0.063393183 0.29571697 -0.027829954
0.068751171 0.29580951 -0.028096566
0.074109167 0.29590207 -0.028363176
0.079467155 0.29599461 -0.028629787
0.085177429 0.29620019 -0.027917052
0.09085612 0.2964052 -0.027202776
0.096182503 0.2964972 -0.027467813
0.10120399 0.29647702 -0.028714526
0.10654618 0.29656929 -0.02898035
0.11188837 0.29666156 -0.029246176
0.20425268 0.33439839 0.30310145
0.12257274 0.29684612 -0.029777825
0.20425268 0.33439839 0.30310145
0.20425268 0.33439839 0.30310145
0.20425268 0.33439839 0.30310145
0.15893009 0.30645597 0.052150514
0.16457093 0.30762267 0.061838578
0.16901472 0.30812714 0.065604962
0.17333207 0.30862942 0.069377623
0.17763819 0.30923846 0.074147724
0.18158743 0.30962747 0.07694184
0.18510744 0.30958134 0.075769812
0.18859126 0.30942765 0.073602706
0.19203429 0.30905941 0.069443882
0.19567618 0.30890846 0.067268915
0.19938125 0.30875862 0.065090813
0.20314041 0.30839583 0.06091626
0.20703723 0.3079285 0.055737976
0.21130838 0.30661222 0.042566068
0.21856079 0.29893178 -0.03056664
0.20425268 0.33439839 0.30310145
0.22882092 0.29953671 -0.027089708
0.20425268 0.33439839 0.30310145
0.23904029 0.29992712 -0.025604468
0.20425268 0.33439839 0.30310145
0.20425268 0.33439839 0.30310145
0.20425268 0.33439839 0.30310145
0.20425268 0.33439839 0.30310145
0.20425268 0.33439839 0.30310145
0.20425268 0.33439839 0.30310145
0.20425268 0.33439839 0.30310145
0.20425268 0.33439839 0.30310145
0.20425268 0.33439839 0.30310145
0.20425268 0.33439839 0.30310145
0.20425268 0.33439839 0.30310145
0.30006701 0.30140889 -0.024653627
0.30518794 0.30149734 -0.02490844
0.31030884 0.30158579 -0.025163254
0.31542975 0.30167425 -0.025418069
0.32019171 0.30186346 -0.024658147
0.32529682 0.30195162 -0.024912175
0.33001137 0.30213997 -0.024149863
0.33469433 0.30232778 -0.023386039
0.33976781 0.3024154 -0.023638494
0.34440333 0.30260241 -0.022872251
0.34900725 0.30278885 -0.022104494
0.35357958 0.30297479 -0.021335103
0.35860565 0.3030616 -0.0215852
0.36313054 0.30324668 -0.02081351
0.36814082 0.30333322 -0.021062819
0.37261829 0.30351752 -0.020288739
0.37761277 0.30360377 -0.020537263
-0.039213002 0.28754267 -0.030807553
-0.033712745 0.28763768 -0.031081242
-0.028212517 0.28773269 -0.03135493
-0.022060066 0.28796151 -0.030666754
-0.015939251 0.28818977 -0.029976998
-0.0098500401 0.28841752 -0.029285673
-0.0043972135 0.28851169 -0.029557005
0.0016445965 0.28873864 -0.028863352
0.0070816129 0.28883255 -0.029133894
0.013076007 0.28905863 -0.028437817
0.019038796 0.28928417 -0.027740203
0.024444208 0.28937754 -0.028009173
0.029849604 0.28947091 -0.028278142
0.035255015 0.28956428 -0.028547114
0.040660426 0.28965765 -0.028816085
0.046065837 0.28975102 -0.029085055
0.051471233 0.28984439 -0.029354025
0.057738483 0.29019776 -0.027677236
0.063112274 0.29029059 -0.027944634
0.06848608 0.2903834 -0.028212031
0.073859885 0.29047623 -0.028479429
0.079601385 0.29069796 -0.027770802
0.084959388 0.2907905 -0.028037414
0.090317376 0.29088306 -0.028304026
0.09599565 0.29110369 -0.027592249
0.10133784 0.29119599 -0.027858075
0.10639136 0.2911607 -0.029103858
0.11174934 0.29125324 -0.029370468
0.11710734 0.2913458 -0.02963708
0.20425268 0.33439839 0.30310145
0.20425268 0.33439839 0.30310145
0.20425268 0.33439839 0.30310145
0.14047776 0.29297507 -0.020856764
0.15903066 0.3024874 0.052794117
0.1645053 0.30368501 0.061470587
0.16910973 0.30437729 0.066213094
0.17329489 0.30481729 0.068987794
0.17761482 0.30550468 0.073744453
0.1815787 0.30594084 0.076530173
0.18511489 0.30587935 0.075359881
0.18861531 0.30569467 0.073197082
0.19217895 0.30551115 0.071031116
0.19577001 0.30520549 0.06786944
0.19947588 0.30502442 0.065696411
0.2032408 0.30472174 0.062526099
0.20713542 0.30405366 0.05636638
0.21141171 0.30253428 0.043227412
0.21813098 0.29529679 -0.016766205
0.20425268 0.33439839 0.30310145
0.20425268 0.33439839 0.30310145
0.20425268 0.33439839 0.30310145
0.20425268 0.33439839 0.30310145
0.20425268 0.33439839 0.30310145
0.20425268 0.33439839 0.30310145
0.20425268 0.33439839 0.30310145
0.20425268 0.33439839 0.30310145
0.20425268 0.33439839 0.30310145
0.20425268 0.33439839 0.30310145
0.20425268 0.33439839 0.30310145
0.20425268 0.33439839 0.30310145
0.20425268 0.33439839 0.30310145
0.20425268 0.33439839 0.30310145
0.20425268 0.33439839 0.30310145
0.30049139 0.29622915 -0.024841677
0.30562812 0.29631788 -0.025097279
0.31076485 0.29640663 -0.025352878
0.31555805 0.29661196 -0.024597093
0.32067895 0.29670042 -0.024851907
0.32579988 0.29678887 -0.025106721
0.33052981 0.29699314 -0.024347762
0.33563495 0.29708132 -0.024601789
0.33989492 0.2974 -0.022825118
0.34453005 0.29760262 -0.022061409
0.34958774 0.29769 -0.022313077
0.35417545 0.29789177 -0.021547068
0.35921735 0.29797885 -0.021797951
0.36375764 0.29817986 -0.021029521
0.36826634 0.29838032 -0.020259582
0.37327662 0.29846686 -0.020508889
0.37773788 0.29866645 -0.019736558
0.20425268 0.33439839 0.30310145
-0.034258366 0.2820504 -0.031157216
-0.02740711 0.2824451 -0.029514592
-0.021922663 0.28253984 -0.029787496
-0.016438231 0.28263459 -0.030060397
-0.010333627 0.28287822 -0.029372394
-0.0048649758 0.28297266 -0.029644512
0.0011922121 0.28321549 -0.028954146
0.0066450536 0.28330967 -0.029225476
0.012654841 0.28355166 -0.028532784
0.018633038 0.28379312 -0.027838457
0.024054244 0.28388676 -0.028108213
0.029475465 0.2839804 -0.028377973
0.034896687 0.28407404 -0.028647728
0.040317878 0.28416768 -0.028917484
0.045739099 0.28426132 -0.029187242
0.05160664 0.28450087 -0.02848744
0.057012066 0.28459421 -0.028756412
0.062832206 0.28483295 -0.028054247
0.068221793 0.28492606 -0.02832243
0.073611394 0.28501916 -0.028590616
0.079368286 0.28525677 -0.027885308
0.20425268 0.33439839 0.30310145
0.09011589 0.28544241 -0.028420104
0.095809601 0.28567895 -0.027711652
0.10086349 0.28562808 -0.028954899
0.10623728 0.28572088 -0.029222297
0.11161108 0.28581372 -0.029489694
0.11698488 0.28590652 -0.029757092
0.12235868 0.28599936 -0.030024489
0.20425268 0.33439839 0.30310145
0.20425268 0.33439839 0.30310145
0.14022113 0.28755155 -0.021987401
0.15877594 0.29823628 0.051471867
0.16476415 0.29999799 0.06307511
0.16920477 0.30062744 0.066821225
0.17325851 0.30097389 0.068603031
0.17759226 0.30173969 0.073346242
0.18147214 0.30208308 0.075136699
0.18520597 0.30228573 0.075942673
0.18870717 0.30206984 0.07378494
0.19222039 0.30171597 0.070634805
0.19589925 0.30164132 0.069459975
0.19957052 0.30129018 0.066302009
0.20333661 0.30094063 0.063139297
0.20722161 0.30031681 0.057987146
0.2115429 0.29831862 0.0428956
0.21782178 0.29165575 -0.0060134106
0.20425268 0.33439839 0.30310145
0.20425268 0.33439839 0.30310145
0.20425268 0.33439839 0.30310145
0.20425268 0.33439839 0.30310145
0.20425268 0.33439839 0.30310145
0.20425268 0.33439839 0.30310145
0.20425268 0.33439839 0.30310145
0.20425268 0.33439839 0.30310145
0.20425268 0.33439839 0.30310145
0.20425268 0.33439839 0.30310145
0.20425268 0.33439839 0.30310145
0.20425268 0.33439839 0.30310145
0.20425268 0.33439839 0.30310145
0.20425268 0.33439839 0.30310145
0.29576409 0.2909292 -0.024768334
0.30091661 0.29101819 -0.02502472
0.30575681 0.29123998 -0.02427377
0.31089354 0.29132873 -0.02452937
0.31603026 0.29141745 -0.024784971
0.32152671 0.29137418 -0.026050268
0.32630369 0.29159489 -0.02529617
0.33104908 0.29181504 -0.024540558
0.33576283 0.29203466 -0.023783347
0.34044498 0.29225373 -0.023024529
0.34509552 0.29247224 -0.022264199
0.350169 0.29255986 -0.022516653
0.35477215 0.29277757 -0.021753907
0.35982984 0.29286492 -0.022005575
0.36438555 0.29308179 -0.021240525
0.36942744 0.29316887 -0.021491408
0.37393573 0.29338494 -0.020723939
0.3789618 0.29347175 -0.020974036
0.20425268 0.33439839 0.30310145
-0.034120172 0.27659753 -0.030272892
-0.02860412 0.27669281 -0.030547367
-0.023088068 0.27678809 -0.030821843
-0.016936436 0.27704814 -0.030138731
-0.011436194 0.27714315 -0.030412421
-0.0047279745 0.27756664 -0.028767791
0.00074064732 0.27766111 -0.029039904
0.0062092692 0.27775556 -0.029312022
0.012791052 0.2781769 -0.02766113
0.018228084 0.27827081 -0.027931672
0.0236651 0.27836472 -0.028202215
0.029102117 0.27845865 -0.028472759
0.034539133 0.27855256 -0.028743302
0.03997615 0.27864647 -0.029013846
0.045874909 0.27890217 -0.02831812
0.05129613 0.27899581 -0.028587878
0.056717336 0.27908945 -0.028857633
0.062552899 0.27934405 -0.028158793
0.067958303 0.27943742 -0.028427765
0.073746413 0.27969125 -0.027726565
0.07876911 0.27962416 -0.028965704
0.08452563 0.27987742 -0.028262932
0.089915231 0.27997053 -0.028531116
0.095624328 0.28022295 -0.027825983
0.10069444 0.2801567 -0.029067483
0.10608404 0.2802498 -0.029335666
0.11147364 0.28034291 -0.029603852
0.11686324 0.28043601 -0.029872036
0.12225284 0.28052908 -0.030140219
0.1278671 0.28077987 -0.029430367
0.20425268 0.33439839 0.30310145
0.20425268 0.33439839 0.30310145
0.15834557 0.29376581 0.049179353
0.16486077 0.29618564 0.063693382
0.16915417 0.29672128 0.066447385
0.17335275 0.29725531 0.069206089
0.17745648 0.29778761 0.071969539
0.1815636 0.29847383 0.075722024
0.18529703 0.29869214 0.076525465
0.18879902 0.29844499 0.074372798
0.19236426 0.29819894 0.072216965
0.19595771 0.29779956 0.069070496
0.19964595 0.29740176 0.06591934
0.20343244 0.29715955 0.063752495
0.20733182 0.29630399 0.057623181
0.21164665 0.29422504 0.043559477
0.21847324 0.28495985 -0.017122267
0.20425268 0.33439839 0.30310145
0.20425268 0.33439839 0.30310145
0.20425268 0.33439839 0.30310145
0.20425268 0.33439839 0.30310145
0.20425268 0.33439839 0.30310145
0.20425268 0.33439839 0.30310145
0.20425268 0.33439839 0.30310145
0.20425268 0.33439839 0.30310145
0.20425268 0.33439839 0.30310145
0.20425268 0.33439839 0.30310145
0.20425268 0.33439839 0.30310145
0.20425268 0.33439839 0.30310145
0.2860871 0.28535864 -0.025432773
0.20425268 0.33439839 0.30310145
0.29617429 0.2856867 -0.024945462
0.30134261 0.28577596 -0.025202636
0.30619824 0.28601366 -0.024455063
0.31135076 0.28610265 -0.024711451
0.31650329 0.28619164 -0.024967838
0.32165581 0.28628063 -0.025224224
0.32643238 0.28651696 -0.024472661
0.33156911 0.28660569 -0.024728261
0.33589071 0.28698799 -0.022964904
0.34057248 0.28722268 -0.022208622
0.34522262 0.28745681 -0.021450825
0.35029614 0.28754443 -0.021703281
0.35536963 0.28763208 -0.021955736
0.35995656 0.2878651 -0.021194734
0.36501423 0.28795248 -0.021446401
0.36955374 0.28818473 -0.0206831
0.37459564 0.28827181 -0.020933982
0.37963754 0.2883589 -0.021184865
0.20425268 0.33439839 0.30310145
0.20425268 0.33439839 0.30310145
-0.029132754 0.27105892 -0.030616526
-0.022949889 0.27133518 -0.029937519
-0.017433867 0.27143046 -0.030211994
-0.011917815 0.27152574 -0.03048647
-0.0051945746 0.27198076 -0.028847694
0.00028987229 0.2720755 -0.029120598
0.0063462853 0.27234954 -0.028435301
0.012371093 0.27262306 -0.027748432
0.01782392 0.27271727 -0.02801976
0.023276731 0.27281144 -0.028291091
0.028729558 0.27290565 -0.028562419
0.034182385 0.27299982 -0.028833751
0.039635196 0.273094 -0.029105078
0.045549393 0.27336559 -0.028412733
0.050986409 0.27345949 -0.028683279
0.05685316 0.27373028 -0.027988516
0.062274382 0.27382392 -0.028258273
0.068093725 0.2740939 -0.02756118
0.073499128 0.27418727 -0.02783015
0.078904532 0.27428064 -0.02809912
0.084660649 0.27454951 -0.027398881
0.089715354 0.27446738 -0.028637061
0.095439851 0.27473572 -0.027935248
0.10082946 0.27482879 -0.028203432
0.10593159 0.27474746 -0.029443972
0.11133699 0.27484083 -0.029712943
0.11674239 0.2749342 -0.029981913
0.12214781 0.27502757 -0.030250885
0.12755322 0.27512094 -0.030519854
0.20425268 0.33439839 0.30310145
0.20425268 0.33439839 0.30310145
0.15632591 0.28764904 0.038101301
0.16447425 0.29185662 0.061375704
0.16910435 0.29278383 0.066078611
0.17344698 0.29353669 0.069809154
0.17754953 0.2941159 0.072565004
0.18155724 0.29469347 0.075325571
0.1853061 0.29492769 0.076125681
0.18882468 0.29464957 0.073977292
0.1924569 0.29454285 0.072809897
0.19605154 0.29409659 0.069671027
0.19974098 0.29365191 0.066527471
0.20352827 0.29337844 0.064365692
0.20741722 0.29259837 0.059238881
0.21189347 0.28928664 0.039282959
0.21744615 0.28429902 0.0094068302
0.2244892 0.27781203 -0.029423375
0.20425268 0.33439839 0.30310145
0.20425268 0.33439839 0.30310145
0.20425268 0.33439839 0.30310145
0.20425268 0.33439839 0.30310145
0.20425268 0.33439839 0.30310145
0.20425268 0.33439839 0.30310145
0.20425268 0.33439839 0.30310145
0.20425268 0.33439839 0.30310145
0.20425268 0.33439839 0.30310145
0.20425268 0.33439839 0.30310145
0.20425268 0.33439839 0.30310145
0.20425268 0.33439839 0.30310145
0.20425268 0.33439839 0.30310145
0.29658526 0.28041294 -0.025117582
0.30176941 0.28050247 -0.025375541
0.30664045 0.28075609 -0.024631232
0.31180876 0.28084534 -0.024888406
0.31663236 0.2810981 -0.024141794
0.32178488 0.28118709 -0.02439818
0.32693741 0.28127611 -0.024654567
0.33169779 0.28152779 -0.023904752
0.33642656 0.2817789 -0.023153422
0.34112373 0.28202951 -0.022400489
0.34578928 0.28227952 -0.021645956
0.3508786 0.28236744 -0.021899197
0.35596788 0.28245533 -0.022152437
0.36057022 0.28270429 -0.021394815
0.36564374 0.28279194 -0.021647271
0.37019864 0.28304005 -0.02088723
0.3752563 0.2831274 -0.021138899
0.38031402 0.28321478 -0.021390567
0.20425268 0.33439839 0.30310145
0.20425268 0.33439839 0.30310145
-0.029660583 0.26539376 -0.030680615
-0.02346231 0.26568595 -0.03000493
-0.017930478 0.26578149 -0.030280191
-0.011779621 0.26607284 -0.02960215
-0.006263569 0.26616812 -0.029876625
-0.00016012788 0.26645863 -0.029196221
0.0053401142 0.26655364 -0.029469911
0.01139614 0.26684329 -0.028787149
0.01742056 0.26713243 -0.028102811
0.022889182 0.2672269 -0.028374929
0.028357804 0.26732135 -0.028647045
0.033826441 0.26741582 -0.028919162
0.039295077 0.26751027 -0.029191278
0.044763699 0.26760474 -0.029463394
0.050232336 0.26769918 -0.029735511
0.05613029 0.26798615 -0.029044881
0.061583102 0.26808035 -0.029316211
0.067433678 0.26836646 -0.028623257
0.073252611 0.26865205 -0.027928665
0.07867384 0.26874569 -0.028198423
0.084095038 0.26883933 -0.02846818
0.08951626 0.26893297 -0.028737936
0.095256187 0.26921719 -0.028039444
0.10066159 0.26931056 -0.028308414
0.1057799 0.26921389 -0.029547207
0.11120111 0.26930752 -0.029816965
0.20425268 0.33439839 0.30310145
0.12204354 0.2694948 -0.030356478
0.12746476 0.26958844 -0.030626236
0.20425268 0.33439839 0.30310145
0.20425268 0.33439839 0.30310145
0.15272763 0.27946407 0.018306142
0.16457205 0.28799739 0.062001571
0.16905533 0.28881517 0.065714918
0.17341217 0.28963077 0.069434546
0.17752935 0.29025713 0.072181985
0.18155168 0.29088187 0.074934177
0.18531592 0.29113194 0.075730979
0.18885112 0.29082286 0.073586851
0.19249955 0.29070079 0.072421186
0.19611116 0.29020795 0.069289155
0.19985442 0.29008752 0.068118796
0.20362408 0.28959736 0.064978898
0.20750181 0.28892401 0.060849503
0.21191216 0.28566867 0.042916127
0.21675703 0.28297612 0.027913438
0.22413725 0.27403453 -0.020675031
0.20425268 0.33439839 0.30310145
0.20425268 0.33439839 0.30310145
0.20425268 0.33439839 0.30310145
0.20425268 0.33439839 0.30310145
0.20425268 0.33439839 0.30310145
0.20425268 0.33439839 0.30310145
0.20425268 0.33439839 0.30310145
0.20425268 0.33439839 0.30310145
0.20425268 0.33439839 0.30310145
0.20425268 0.33439839 0.30310145
0.20425268 0.33439839 0.30310145
0.20425268 0.33439839 0.30310145
0.2917971 0.27501813 -0.02502583
0.29699704 0.27510792 -0.025284575
0.30189928 0.27537769 -0.024544431
0.30676991 0.27564692 -0.023802653
0.31193823 0.27573618 -0.024059827
0.31710657 0.27582547 -0.024317
0.32191396 0.27609357 -0.023572136
0.32706648 0.27618259 -0.023828523
0.332219 0.27627158 -0.024084911
0.33696318 0.27653858 -0.023336843
0.34167576 0.27680507 -0.02258726
0.34635675 0.27707103 -0.021836074
0.35146183 0.27715918 -0.022090103
0.3560954 0.27742431 -0.021336529
0.36118472 0.27751222 -0.021589771
0.36677718 0.27742374 -0.022852186
0.3708443 0.27786413 -0.02108635
0.37645262 0.27777594 -0.022349494
0.37989014 0.27839056 -0.019568251
0.20425268 0.33439839 0.30310145
0.20425268 0.33439839 0.30310145
0.20425268 0.33439839 0.30310145
-0.023323715 0.26021743 -0.029118076
-0.017791882 0.26031297 -0.029393338
-0.012878627 0.2601971 -0.030619372
-0.0067281723 0.2605041 -0.029943861
-0.00060932338 0.26081049 -0.029266777
0.004906714 0.26090577 -0.029541252
0.010978132 0.26121134 -0.028861811
0.01701799 0.26151639 -0.028180795
0.022502407 0.2616111 -0.028453697
0.027986854 0.26170585 -0.0287266
0.033471286 0.26180059 -0.028999504
0.038955718 0.2618953 -0.029272405
0.04444015 0.26199004 -0.029545307
0.049924582 0.26208478 -0.029818211
0.055837959 0.26238763 -0.029130906
0.061306596 0.26248208 -0.029403022
0.067172542 0.26278412 -0.028713353
0.073006906 0.2630856 -0.028022146
0.078078195 0.2629725 -0.029256012
0.083880946 0.26327345 -0.028563233
0.089652069 0.26357383 -0.027868818
0.095073283 0.26366746 -0.028138576
0.100192 0.26355517 -0.029374864
0.10562903 0.26364908 -0.029645406
0.11106604 0.26374298 -0.029915949
0.11650306 0.26383692 -0.030186493
0.12217935 0.26413566 -0.02948736
0.12737709 0.26402473 -0.03072758
0.13302177 0.26432294 -0.030026875
0.1390186 0.26502869 -0.027380612
0.15812504 0.28101444 0.048229795
0.1648301 0.28434169 0.063601002
0.169296 0.28522167 0.067305014
0.17337817 0.28569362 0.06906499
0.17750996 0.28636715 0.071804039
0.18164395 0.2872414 0.075524569
0.18540779 0.28750712 0.076318838
0.1890092 0.28736863 0.075158074
0.19259259 0.28702909 0.073016651
0.19623923 0.28669065 0.070872083
0.19994906 0.28635332 0.068724394
0.20372212 0.28601703 0.066573538
0.2075856 0.28528091 0.062455062
0.21186964 0.28254491 0.048500154
0.2165962 0.27981657 0.034523211
0.22371796 0.27070668 -0.010982609
0.20425268 0.33439839 0.30310145
0.20425268 0.33439839 0.30310145
0.20425268 0.33439839 0.30310145
0.20425268 0.33439839 0.30310145
0.20425268 0.33439839 0.30310145
0.20425268 0.33439839 0.30310145
0.20425268 0.33439839 0.30310145
0.20425268 0.33439839 0.30310145
0.20425268 0.33439839 0.30310145
0.2767657 0.26921439 -0.025400855
0.28176236 0.26950139 -0.024667962
0.2869781 0.26959148 -0.024927495
0.20425268 0.33439839 0.30310145
0.29712731 0.26996753 -0.02445093
0.30202916 0.27025291 -0.023713319
0.30721331 0.27034247 -0.023971278
0.31239742 0.270432 -0.02422924
0.31723607 0.27071631 -0.023488423
0.32240438 0.27080557 -0.023745596
0.3275727 0.27089486 -0.02400277
0.33234811 0.27117804 -0.023258867
0.33750063 0.27126703 -0.023515254
0.34222859 0.2715494 -0.022768933
0.34692499 0.27183124 -0.022021098
0.35158974 0.27211252 -0.021271661
0.35669485 0.2722007 -0.021525688
0.36179996 0.27228889 -0.021779716
0.36690506 0.27237707 -0.022033744
0.37201017 0.27246526 -0.022287771
0.37711528 0.27255344 -0.022541799
0.38111842 0.27302399 -0.020777885
0.20425268 0.33439839 0.30310145
0.20425268 0.33439839 0.30310145
0.20425268 0.33439839 0.30310145
0.20425268 0.33439839 0.30310145
-0.018921316 0.25438982 -0.030401383
-0.013357863 0.25448593 -0.030678216
-0.0071919858 0.25480878 -0.030006029
-0.001057744 0.25513113 -0.029332265
0.0044741184 0.25522667 -0.029607529
0.010005966 0.25532222 -0.029882791
0.016077012 0.25564343 -0.029205885
0.021593034 0.25573871 -0.029480359
0.027616665 0.25605908 -0.028801087
0.033116892 0.25615409 -0.029074777
0.038617149 0.2562491 -0.029348467
0.044117391 0.25634408 -0.029622156
0.049617618 0.25643909 -0.029895846
0.055546418 0.25675786 -0.02921186
0.06103085 0.2568526 -0.029484762
0.066912226 0.25717053 -0.028798416
0.072761983 0.25748789 -0.0281105
0.078214794 0.2575821 -0.028381828
0.083667621 0.25767627 -0.02865316
0.08912044 0.25777045 -0.028924489
0.094891198 0.25808647 -0.028232664
0.10002609 0.25795883 -0.029467149
0.10547891 0.258053 -0.029738478
0.11093174 0.25814721 -0.030009808
0.11663927 0.25846213 -0.029314838
0.1220763 0.25855604 -0.029585382
0.1275133 0.25864995 -0.029855926
0.13315761 0.25896379 -0.029157754
0.13896175 0.25949675 -0.027488565
0.15770179 0.2762627 0.045982923
0.16508736 0.28071719 0.065195382
0.16939181 0.28144056 0.067918211
0.17347318 0.28194377 0.069673121
0.17749135 0.28244588 0.071431167
0.18154292 0.28316489 0.074166566
0.18549965 0.28388226 0.076906696
0.18910146 0.28372815 0.075748466
0.19273487 0.28357455 0.074588679
0.19633307 0.28298768 0.071472615
0.20004369 0.28261909 0.069329992
0.20381933 0.28246793 0.068163112
0.20766863 0.28166905 0.064055569
0.21185297 0.27936152 0.053078361
0.21670429 0.27555111 0.035214957
0.22329152 0.26766005 -0.0013357961
0.20425268 0.33439839 0.30310145
0.20425268 0.33439839 0.30310145
0.20425268 0.33439839 0.30310145
0.20425268 0.33439839 0.30310145
0.20425268 0.33439839 0.30310145
0.20425268 0.33439839 0.30310145
0.20425268 0.33439839 0.30310145
0.20425268 0.33439839 0.30310145
0.27186888 0.26373953 -0.025290957
0.27689677 0.26404274 -0.024562141
0.20425268 0.33439839 0.30310145
0.28735986 0.26422346 -0.025082778
0.29232451 0.26452553 -0.024350848
0.29754025 0.26461563 -0.024610382
0.30245754 0.26491693 -0.02387603
0.30765748 0.26500675 -0.024134777
0.3125273 0.26530722 -0.023398127
0.31805736 0.2651864 -0.024652271
0.32289556 0.26548633 -0.023914048
0.3280797 0.26557586 -0.024172008
0.33287051 0.26587495 -0.023431366
0.33762971 0.26617348 -0.02268921
0.34278223 0.2662625 -0.022945598
0.34749401 0.2665602 -0.022201024
0.3526307 0.26664895 -0.022456624
0.35776746 0.26673767 -0.022712225
0.36290416 0.26682639 -0.022967827
0.36804086 0.26691511 -0.023223426
0.37265784 0.26721123 -0.022474192
0.37777877 0.26729968 -0.022729006
0.3817969 0.26780176 -0.020970918
0.20425268 0.33439839 0.30310145
0.20425268 0.33439839 0.30310145
0.20425268 0.33439839 0.30310145
0.20425268 0.33439839 0.30310145
-0.019415572 0.24864715 -0.030454345
-0.013836309 0.24874352 -0.030731967
-0.0082570463 0.24883988 -0.031009588
-0.0020915717 0.24917838 -0.030339964
0.0040423125 0.24951628 -0.029668733
0.0095899701 0.24961211 -0.029944783
0.015676409 0.24994926 -0.029271197
0.021208256 0.25004479 -0.029546458
0.026740104 0.25014037 -0.02982172
0.032763332 0.25047636 -0.029144986
0.037803814 0.25033146 -0.030372243
0.043795422 0.25066692 -0.029693937
0.049311474 0.25076219 -0.029968413
0.055255666 0.25109684 -0.029287748
0.061168253 0.25143093 -0.028605508
0.066652685 0.25152567 -0.028878411
0.072517842 0.25185895 -0.028193813
0.077986486 0.25195342 -0.028465929
0.083455116 0.25204787 -0.028738046
0.088923745 0.25214234 -0.029010162
0.095027409 0.25271171 -0.027361013
0.10016271 0.25256842 -0.028592961
0.10532963 0.2524257 -0.029826511
0.11106835 0.2527568 -0.02913562
0.11652118 0.25285098 -0.02940695
0.12197401 0.25294515 -0.02967828
0.12764952 0.25327519 -0.028984275
0.13308653 0.25336909 -0.029254818
0.13871463 0.25369826 -0.02855839
0.15587878 0.26953721 0.036009423
0.16534385 0.27712396 0.06678471
0.16948764 0.27765948 0.068531409
0.17344038 0.27795973 0.069311164
0.17747355 0.27849337 0.07106337
0.18173221 0.2797268 0.075733699
0.18559152 0.2802574 0.077494554
0.18912908 0.27985457 0.075365633
0.19277869 0.27968565 0.074207567
0.19642691 0.27928469 0.072073139
0.20013833 0.27888486 0.069935583
0.20391437 0.27871808 0.068771243
0.20775084 0.27808842 0.065651
0.21192375 0.27560875 0.05470245
0.21667439 0.27197918 0.038842913
0.22403239 0.2605074 -0.010345488
0.20425268 0.33439839 0.30310145
0.20425268 0.33439839 0.30310145
0.20425268 0.33439839 0.30310145
0.24601363 0.25763944 -0.025109516
0.20425268 0.33439839 0.30310145
0.20425268 0.33439839 0.30310145
0.26167807 0.25814199 -0.024912525
0.20425268 0.33439839 0.30310145
0.27200034 0.25855225 -0.02444971
0.27746755 0.25841472 -0.025698202
0.28249505 0.25873351 -0.024971921
0.28774241 0.25882414 -0.025233027
0.29272246 0.25914216 -0.024504386
0.29767093 0.25945958 -0.023774201
0.30258781 0.25977653 -0.023042385
0.30778775 0.25986636 -0.023301132
0.31298769 0.25995618 -0.02355988
0.31818759 0.26004601 -0.023818625
0.32338756 0.2601358 -0.024077371
0.32820958 0.26045105 -0.023340896
0.33339369 0.2605406 -0.023598855
0.33816832 0.26085505 -0.022859961
0.3429113 0.26116896 -0.022119556
0.34806383 0.26125795 -0.022375941
0.35321635 0.26134694 -0.022632329
0.35836887 0.26143596 -0.022888716
0.36400998 0.26130143 -0.02414583
0.36867392 0.26161394 -0.023401491
0.37382644 0.26170292 -0.023657877
0.37790704 0.26223737 -0.02190803
0.38247618 0.26254827 -0.021158943
0.20425268 0.33439839 0.30310145
0.20425268 0.33439839 0.30310145
0.20425268 0.33439839 0.30310145
0.20425268 0.33439839 0.30310145
0.20425268 0.33439839 0.30310145
-0.014313951 0.24296986 -0.03078071
-0.0081172734 0.24332449 -0.030115131
-0.0025379956 0.24342087 -0.030392755
0.0036112815 0.2437747 -0.029724874
0.0091747344 0.24387079 -0.030001709
0.015276581 0.24422379 -0.029331442
0.020824239 0.2443196 -0.02960749
0.026371896 0.24441543 -0.029883537
0.032410547 0.24476737 -0.029210124
0.037942395 0.24486293 -0.029485386
0.043474242 0.24495848 -0.029760648
0.049449652 0.24530928 -0.029084088
0.05496569 0.24540456 -0.029358566
0.060893685 0.24575457 -0.028679645
0.066393934 0.24584958 -0.028953334
0.072274514 0.24619876 -0.028272059
0.077758946 0.24629349 -0.028544962
0.083592117 0.24664184 -0.027861325
0.089060746 0.2467363 -0.028133441
0.094529375 0.24683076 -0.028405556
0.099998005 0.24692522 -0.028677672
0.10518112 0.24676715 -0.029909477
0.11093526 0.24711414 -0.029221905
0.11665778 0.24746059 -0.028532762
0.12187252 0.24730305 -0.029766139
0.12734115 0.24739751 -0.030038254
0.13301626 0.24774314 -0.029346753
0.13885044 0.24833913 -0.027689271
0.15633781 0.26572618 0.038639154
0.16496326 0.27256054 0.064505041
0.16944021 0.27362832 0.068177842
0.17353581 0.27419427 0.069921829
0.17756818 0.27475917 0.071668968
0.18153735 0.27532291 0.073419236
0.1855233 0.27613461 0.076142587
0.18928598 0.27644721 0.076929256
0.19287175 0.27601391 0.074803032
0.19652076 0.27558172 0.072673671
0.20023297 0.27515066 0.070541181
0.2040084 0.27472061 0.068405531
0.20786186 0.27404436 0.065292105
0.21202432 0.27164018 0.055346053
0.21682769 0.26751381 0.038550861
0.2259009 0.24860471 -0.036890324
0.20425268 0.33439839 0.30310145
0.20425268 0.33439839 0.30310145
0.24119578 0.25159258 -0.026938597
0.24639672 0.25193003 -0.02622347
0.20425268 0.33439839 0.30310145
0.25686085 0.25235838 -0.025770295
0.26180992 0.25293908 -0.024068743
0.26726174 0.25278562 -0.025313916
0.27254069 0.25287682 -0.025576595
0.27759939 0.2532118 -0.02485442
0.28286257 0.25330272 -0.025116313
0.28812572 0.25339362 -0.025378205
0.29312122 0.25372753 -0.024652883
0.29808509 0.25406086 -0.023925992
0.30301735 0.25439364 -0.023197556
0.30823308 0.25448373 -0.023457088
0.31344885 0.25457382 -0.023716621
0.31901127 0.25442234 -0.02496727
0.32388031 0.25475401 -0.024235688
0.32871777 0.2550852 -0.023502473
0.33391774 0.25517502 -0.023761218
0.33870772 0.25550538 -0.023025705
0.34346616 0.25583518 -0.022288559
0.34863448 0.25592443 -0.022545733
0.3538028 0.25601372 -0.022802904
0.35944426 0.25586355 -0.024057545
0.36462837 0.2559531 -0.024315504
0.36981255 0.25604263 -0.024573464
0.37395555 0.25660941 -0.022831833
0.37857169 0.25693673 -0.022087608
0.20425268 0.33439839 0.30310145
0.20425268 0.33439839 0.30310145
0.20425268 0.33439839 0.30310145
0.20425268 0.33439839 0.30310145
0.20425268 0.33439839 0.30310145
0.20425268 0.33439839 0.30310145
-0.014790818 0.23716494 -0.030824354
-0.0091799349 0.23726186 -0.031103548
-0.0035690516 0.23735878 -0.031382743
0.0031810552 0.23800184 -0.029775914
0.0087603033 0.2380982 -0.030053535
0.014877573 0.23846711 -0.029386621
0.02044104 0.23856321 -0.029663455
0.026510879 0.23893128 -0.028994147
0.032058537 0.2390271 -0.029270196
0.037606195 0.23912293 -0.029546246
0.043153852 0.23921876 -0.029822294
0.04870151 0.23931457 -0.030098341
0.054676533 0.23968105 -0.029424315
0.06061992 0.24004693 -0.028748719
0.066135973 0.24014221 -0.029023195
0.07203196 0.2405073 -0.028345237
0.077532202 0.24060231 -0.028618926
0.083380789 0.24096657 -0.027938608
0.088865228 0.2410613 -0.02821151
0.09434966 0.24115603 -0.028484413
0.099834092 0.24125077 -0.028757315
0.10503341 0.24107733 -0.029987372
0.11080296 0.24144022 -0.02930312
0.1162874 0.24153496 -0.029576024
0.12200952 0.24189703 -0.028889418
0.12770005 0.24225855 -0.028201234
0.13315287 0.24235274 -0.028472565
0.13898626 0.24297999 -0.026820151
0.15679525 0.26197758 0.041258723
0.16410904 0.26710543 0.05935026
0.16939357 0.26956588 0.067829341
0.17337711 0.26989794 0.068602458
0.17755155 0.27075973 0.071308769
0.18153574 0.27135506 0.073053174
0.18553631 0.27221388 0.075768128
0.1893144 0.27254236 0.07655149
0.19296479 0.27234218 0.07539849
0.19661459 0.27187875 0.073274203
0.20029476 0.27088934 0.069205731
0.2041032 0.2706919 0.068044886
0.20797364 0.26996905 0.064938262
0.21209389 0.26793426 0.056962557
0.21777737 0.25855586 0.021711543
0.22572568 0.24447823 -0.031136263
0.20425268 0.33439839 0.30310145
0.20425268 0.33439839 0.30310145
0.20425268 0.33439839 0.30310145
0.24652976 0.24668024 -0.025372088
0.20425268 0.33439839 0.30310145
0.25699347 0.24712421 -0.024921447
0.26228824 0.24721567 -0.025184913
0.26739398 0.24756709 -0.024467601
0.27267295 0.24765827 -0.02473028
0.27817255 0.24749003 -0.025975309
0.2832309 0.24784064 -0.025255637
0.28825757 0.24819072 -0.024534425
0.29352075 0.24828163 -0.024796316
0.29850003 0.24863087 -0.024072744
0.30374739 0.2487215 -0.02433385
0.30867925 0.24906993 -0.023607917
0.31424209 0.24890277 -0.024856063
0.31914234 0.24925065 -0.024128556
0.3243739 0.24934101 -0.024388876
0.32922673 0.24968807 -0.023659039
0.3344425 0.24977817 -0.023918573
0.33924791 0.25012442 -0.023186322
0.34402174 0.25047013 -0.022452554
0.34964782 0.25030407 -0.023703814
0.35484773 0.2503939 -0.023962561
0.3600477 0.25048369 -0.024221309
0.36524761 0.25057352 -0.024480052
0.36994243 0.25091785 -0.023742354
0.37408462 0.25151587 -0.022005789
0.20425268 0.33439839 0.30310145
0.20425268 0.33439839 0.30310145
0.20425268 0.33439839 0.30310145
0.20425268 0.33439839 0.30310145
0.20425268 0.33439839 0.30310145
0.20425268 0.33439839 0.30310145
0.20425268 0.33439839 0.30310145
0.20425268 0.33439839 0.30310145
-0.009640187 0.23142597 -0.031142913
-0.003428489 0.23181213 -0.030483216
0.0027516037 0.23219775 -0.029821951
0.0083466768 0.2322944 -0.030100359
0.014479339 0.23267919 -0.0294367
0.020580426 0.23306343 -0.028771531
0.026143879 0.23315953 -0.029048366
0.031707346 0.23325562 -0.029325202
0.037270799 0.23335172 -0.029602036
0.043292835 0.23373462 -0.028932903
0.04839772 0.23354392 -0.030155707
0.054388151 0.23392627 -0.029485
0.060346991 0.23430808 -0.028812725
0.066274166 0.23468933 -0.02813887
0.071790218 0.2347846 -0.028413348
0.077669993 0.23516504 -0.027737139
0.083518192 0.23554492 -0.027059354
0.08867047 0.23535505 -0.028284516
0.094170712 0.23545006 -0.028558206
0.099670961 0.23554505 -0.028831895
0.1051712 0.23564006 -0.029105585
0.11094037 0.23601857 -0.028423866
0.1164248 0.23611331 -0.02869677
0.12190924 0.23620804 -0.028969672
0.12761515 0.23658547 -0.028284809
0.13308379 0.23667993 -0.028556926
0.1387423 0.23705654 -0.027869707
0.14750265 0.2425064 -0.0098987157
0.16357613 0.2620261 0.056147672
0.16892029 0.26462823 0.064600818
0.17334667 0.26582018 0.068255708
0.17742486 0.26644835 0.069990352
0.18153492 0.26735598 0.072692201
0.18555012 0.26826194 0.075398743
0.18934362 0.26860631 0.076178774
0.19301023 0.2683908 0.075027533
0.19664477 0.26761696 0.07194034
0.20037414 0.26684475 0.068848409
0.2041986 0.26635307 0.06672053
0.20811741 0.26530528 0.06265039
0.21238241 0.26231137 0.051781524
0.21893008 0.2479232 0.0010789098
0.2257355 0.23967464 -0.028323302
0.20425268 0.33439839 0.30310145
0.20425268 0.33439839 0.30310145
0.24168348 0.24050786 -0.027179293
0.24678904 0.24115378 -0.025495801
0.20425268 0.33439839 0.30310145
0.25728399 0.24161391 -0.025049208
0.26259455 0.24170564 -0.025313459
0.26790512 0.24179737 -0.025577711
0.27301043 0.24216443 -0.024862995
0.27852628 0.24198082 -0.026106214
0.28359997 0.24234733 -0.025389925
0.28889477 0.24243879 -0.02565339
0.29365259 0.24307872 -0.023952536
0.29891574 0.24316964 -0.024214428
0.30417892 0.24326053 -0.024476321
0.3091262 0.24362485 -0.023753708
0.31437355 0.24371548 -0.024014814
0.31962091 0.24380612 -0.024275919
0.32486826 0.24389677 -0.024537025
0.32973653 0.24425972 -0.023810484
0.33496809 0.24435009 -0.024070803
0.33978891 0.24471222 -0.023341928
0.34500465 0.2448023 -0.023601459
0.35022038 0.24489239 -0.023860993
0.35543615 0.24498248 -0.024120525
0.36065188 0.24507257 -0.024380058
0.36586761 0.24516267 -0.024639592
0.37057781 0.24552293 -0.023905152
0.37473506 0.24615246 -0.022174444
0.20425268 0.33439839 0.30310145
0.20425268 0.33439839 0.30310145
0.20425268 0.33439839 0.30310145
0.20425268 0.33439839 0.30310145
0.20425268 0.33439839 0.30310145
0.20425268 0.33439839 0.30310145
0.20425268 0.33439839 0.30310145
0.20425268 0.33439839 0.30310145
0.20425268 0.33439839 0.30310145
-0.0044571459 0.2256563 -0.031457976
0.0017541349 0.22605808 -0.030800816
0.008486852 0.22676337 -0.029203365
0.01408191 0.22686002 -0.029481772
0.02019839 0.22726016 -0.028819865
0.025777653 0.22735652 -0.029097486
0.031846732 0.22775586 -0.028433278
0.036936194 0.22754927 -0.02965273
0.042515457 0.22764564 -0.029930351
0.04809472 0.227742 -0.030207973
0.054527134 0.22844212 -0.02859561
0.060074791 0.22853795 -0.028871659
0.066017412 0.22893511 -0.028201129
0.071549259 0.22903067 -0.028476391
0.077444457 0.22942698 -0.027803503
0.082960501 0.22952226 -0.028077979
0.088476546 0.22961754 -0.028352454
0.094308518 0.23001277 -0.027676415
0.099508636 0.22980809 -0.028901406
0.10502468 0.22990337 -0.029175881
0.11054073 0.22999865 -0.029450357
0.11630949 0.23039278 -0.028771171
0.12204663 0.2307864 -0.028090417
0.12753105 0.23088112 -0.028363321
0.13322079 0.2312739 -0.027680207
0.13868941 0.23136836 -0.027952323
0.14450543 0.23205781 -0.026309289
0.15531032 0.24225751 0.0060049631
0.16845019 0.25956553 0.061392572
0.17306449 0.26111779 0.065994129
0.17718931 0.26177803 0.06772133
0.18144023 0.26302946 0.071374752
0.18548585 0.26398286 0.07407213
0.18937363 0.26463902 0.075811133
0.19305643 0.26440811 0.07466165
0.19670795 0.26358765 0.071581267
0.20043871 0.26247412 0.067530699
0.20429574 0.26165724 0.064440079
0.20826355 0.26054779 0.060377728
0.21270745 0.25620699 0.045663103
0.22095682 0.23131682 -0.03687707
0.22587052 0.23434675 -0.027459251
0.20425268 0.33439839 0.30310145
0.20425268 0.33439839 0.30310145
0.20425268 0.33439839 0.30310145
0.24717571 0.23530374 -0.02658692
0.25239128 0.23568833 -0.025880214
0.25773346 0.2357806 -0.026146038
0.2629016 0.23616438 -0.025436999
0.26822799 0.23625639 -0.025702037
0.27355438 0.23634839 -0.025967076
0.27865931 0.23673105 -0.025254833
0.28396988 0.23682278 -0.025519084
0.28928047 0.23691452 -0.025783336
0.29405332 0.23758595 -0.024088366
0.29961693 0.23738755 -0.025331473
0.30461127 0.23776831 -0.024613723
0.30957392 0.23814853 -0.023894431
0.3148371 0.23823944 -0.024156325
0.32010025 0.23833035 -0.024418216
0.3253634 0.23842126 -0.024680108
0.33062655 0.23851217 -0.024941999
0.33549446 0.23889075 -0.024217991
0.34033069 0.23926878 -0.023492407
0.34598917 0.23907202 -0.024740204
0.35079378 0.2394495 -0.024013046
0.35602534 0.23953986 -0.024273366
0.3612569 0.23963024 -0.024533685
0.3659983 0.24000664 -0.023803413
0.37020215 0.24066828 -0.022080131
0.20425268 0.33439839 0.30310145
0.20425268 0.33439839 0.30310145
0.20425268 0.33439839 0.30310145
0.20425268 0.33439839 0.30310145
0.20425268 0.33439839 0.30310145
0.20425268 0.33439839 0.30310145
0.20425268 0.33439839 0.30310145
0.20425268 0.33439839 0.30310145
0.20425268 0.33439839 0.30310145
0.20425268 0.33439839 0.30310145
-0.0043157935 0.22007841 -0.030553382
0.0018950999 0.22049581 -0.029898755
0.0075217932 0.22059299 -0.030178735
0.013685256 0.2210096 -0.029521748
0.019296139 0.2211065 -0.029800944
0.025412232 0.22152229 -0.029141597
0.03100732 0.22161892 -0.029420007
0.036602378 0.22171557 -0.029698415
0.042197466 0.2218122 -0.029976822
0.048234493 0.2222266 -0.029313516
0.05381377 0.22232297 -0.029591138
0.059803411 0.22273657 -0.028925531
0.065761417 0.22314961 -0.028258316
0.07168784 0.22356215 -0.027589533
0.077219687 0.2236577 -0.027864795
0.082751535 0.22375324 -0.028140057
0.088283397 0.22384879 -0.02841532
0.094130784 0.22425993 -0.027742606
0.099347092 0.2240399 -0.028965844
0.10487895 0.22413544 -0.029241107
0.11067893 0.22454576 -0.028566033
0.11644728 0.22495551 -0.027889384
0.12194751 0.22505052 -0.028163074
0.12744775 0.22514553 -0.028436763
0.1331529 0.22555421 -0.027756969
0.13882641 0.22596233 -0.027075602
0.14446834 0.22636992 -0.026392661
0.15023613 0.22708981 -0.024752308
0.16614148 0.25031438 0.045768447
0.17291054 0.25663397 0.064705163
0.17695612 0.25701395 0.065467536
0.18115862 0.25801694 0.068149447
0.18542318 0.25964126 0.07275565
0.18927911 0.26001802 0.073527463
0.19310342 0.26039419 0.074300826
0.19670987 0.25890583 0.069302998
0.20048963 0.25773057 0.065260209
0.20439582 0.25655752 0.061211132
0.2084612 0.25476694 0.055226754
0.21455054 0.23533374 -0.0057879495
0.22075991 0.22799781 -0.029225243
0.22613312 0.22840077 -0.028528905
0.23147474 0.22880316 -0.027831022
0.20425268 0.33439839 0.30310145
0.24217436 0.22929811 -0.02739975
0.24743694 0.22969915 -0.026697936
0.25266793 0.23009963 -0.025994547
0.25802594 0.23019217 -0.026261158
0.26320946 0.23059185 -0.025555409
0.26855165 0.23068412 -0.025821235
0.27389386 0.2307764 -0.026087061
0.2790142 0.23117498 -0.025378197
0.28434059 0.23126698 -0.025643235
0.28966698 0.23135898 -0.025908273
0.29472408 0.23175646 -0.025196206
0.30003467 0.2318482 -0.025460457
0.3047435 0.23254977 -0.023767408
0.31002247 0.23264097 -0.024030088
0.31530142 0.23273215 -0.024292767
0.32092869 0.23251922 -0.025536485
0.32585937 0.23291451 -0.024818122
0.33075842 0.23330927 -0.024098217
0.3360216 0.23340017 -0.024360111
0.34087324 0.23379409 -0.023637848
0.3461206 0.23388474 -0.023898955
0.35181108 0.2336729 -0.025145788
0.3566153 0.23406601 -0.024421167
0.36186266 0.23415664 -0.024682272
0.3666195 0.23454894 -0.023955291
0.37083837 0.23524211 -0.022237863
0.20425268 0.33439839 0.30310145
0.20425268 0.33439839 0.30310145
0.20425268 0.33439839 0.30310145
0.20425268 0.33439839 0.30310145
0.20425268 0.33439839 0.30310145
0.20425268 0.33439839 0.30310145
0.20425268 0.33439839 0.30310145
0.20425268 0.33439839 0.30310145
0.20425268 0.33439839 0.30310145
0.20425268 0.33439839 0.30310145
0.20425268 0.33439839 0.30310145
0.00090001523 0.2142624 -0.030862413
0.0071105212 0.21469544 -0.03021032
0.01275301 0.21479291 -0.030491088
0.018916115 0.21522512 -0.029836636
0.024542809 0.2153223 -0.030116618
0.030658484 0.21575369 -0.029459804
0.036742538 0.21618454 -0.028801421
0.042337626 0.21628118 -0.029079828
0.047932684 0.21637782 -0.029358236
0.053527772 0.21647447 -0.029636644
0.059942797 0.2172368 -0.028033603
0.065506257 0.2173329 -0.028310437
0.071448058 0.21776129 -0.027644973
0.077358283 0.21818918 -0.026977938
0.082890131 0.21828473 -0.027253199
0.088091031 0.21804877 -0.02847312
0.09395384 0.21847583 -0.027803725
0.099485688 0.21857138 -0.028078986
0.104734 0.21833622 -0.029301265
0.1105494 0.21876249 -0.028629512
0.11633315 0.21918814 -0.027956184
0.12184919 0.21928342 -0.02823066
0.12736523 0.21937869 -0.028505135
0.13308579 0.21980326 -0.027828662
0.13877474 0.22022729 -0.027150614
0.14425917 0.22032201 -0.027423518
0.14990067 0.22074522 -0.026743114
0.15607573 0.22248073 -0.022244753
0.16836652 0.24061002 0.030005485
0.17617695 0.25051787 0.058450595
0.18088017 0.25287947 0.064944446
0.18528403 0.25491008 0.070492059
0.18924925 0.25563008 0.072217003
0.19301185 0.25536931 0.071068652
0.1967448 0.25445652 0.067999512
0.20046872 0.2512632 0.058202974
0.20451452 0.24612087 0.042623658
0.20975372 0.22764282 -0.012421148
0.2154265 0.22285433 -0.02712027
0.22089612 0.22262304 -0.028353589
0.22633314 0.22271696 -0.028624132
0.23169015 0.22313525 -0.027929541
0.20425268 0.33439839 0.30310145
0.24242099 0.22364636 -0.027502377
0.24769899 0.22406332 -0.026803883
0.25294536 0.22447971 -0.026103815
0.25816017 0.22489552 -0.025402173
0.26351815 0.22498807 -0.025668785
0.26887614 0.22508062 -0.025935397
0.27423412 0.22517318 -0.026202008
0.27959213 0.22526573 -0.026468618
0.28471208 0.22567992 -0.02576226
0.29005426 0.22577219 -0.026028084
0.29485714 0.22650668 -0.024344824
0.30016771 0.22659841 -0.024609076
0.30547827 0.22669013 -0.024873327
0.31047177 0.22710215 -0.024160706
0.31609946 0.22687359 -0.025401831
0.32141003 0.22696532 -0.025666082
0.32635608 0.22737651 -0.024951102
0.33127058 0.22778715 -0.024234487
0.33654955 0.22787833 -0.024497166
0.3414166 0.22828817 -0.023778224
0.34667978 0.22837909 -0.024040118
0.35194296 0.22847 -0.024302009
0.35720611 0.22856091 -0.024563901
0.36199415 0.22896937 -0.023841027
0.3672415 0.22906001 -0.024102133
0.20425268 0.33439839 0.30310145
0.20425268 0.33439839 0.30310145
0.20425268 0.33439839 0.30310145
0.20425268 0.33439839 0.30310145
0.20425268 0.33439839 0.30310145
0.20425268 0.33439839 0.30310145
0.20425268 0.33439839 0.30310145
0.20425268 0.33439839 0.30310145
0.20425268 0.33439839 0.30310145
0.20425268 0.33439839 0.30310145
0.20425268 0.33439839 0.30310145
0.20425268 0.33439839 0.30310145
0.00047415495 0.20831768 -0.030885614
0.0067000687 0.20876662 -0.030236842
0.012358353 0.20886435 -0.030518396
0.018536866 0.20931247 -0.029867262
0.024179369 0.20940994 -0.030148029
0.030310437 0.20985721 -0.029494537
0.036409929 0.21030396 -0.028839473
0.041563809 0.2100516 -0.0300545
0.047631681 0.2104978 -0.029397862
0.053242549 0.21059471 -0.029677056
0.059672579 0.21138856 -0.028079841
0.06525185 0.21148492 -0.028357461
0.071209081 0.21192923 -0.027695348
0.077134691 0.21237296 -0.02703163
0.082682356 0.21246879 -0.02730768
0.087899476 0.21221752 -0.028525854
0.093462929 0.21231362 -0.028802689
0.099026397 0.21240972 -0.029079523
0.10487298 0.21285208 -0.028411875
0.11042064 0.21294791 -0.028687924
0.11621983 0.2133895 -0.02801792
0.12175167 0.21348505 -0.028293181
0.12728353 0.21358061 -0.028568443
0.13301948 0.21402107 -0.02789529
0.13872382 0.21446098 -0.027220562
0.14405157 0.21421163 -0.028444242
0.14988101 0.21499512 -0.026817165
0.15536544 0.21508984 -0.027090069
0.16084987 0.21518457 -0.027362972
0.1707053 0.2290106 0.010489459
0.18023102 0.24624489 0.057944015
0.18514726 0.25008515 0.06824366
0.18922094 0.25117972 0.070916682
0.19301558 0.25090384 0.069769286
0.19672082 0.24926089 0.064792059
0.20043969 0.24420418 0.050228439
0.20464498 0.23608334 0.027013499
0.21034712 0.21330835 -0.037494503
0.21562828 0.21681353 -0.028171575
0.22108111 0.21690771 -0.028442904
0.22653392 0.2170019 -0.028714234
0.23190637 0.21743609 -0.028023021
