# .PCD v0.7 - Point Cloud Data file format
VERSION 0.7
FIELDS x y z
SIZE 4 4 4
TYPE F F F
COUNT 1 1 1
WIDTH 1689
HEIGHT 1
VIEWPOINT 0 0 0 1 0 0 0
POINTS 1689
DATA ascii
-0.10879128 -0.012944479 0.33899999
-0.10342585 -0.012944479 0.33899999
-0.098060437 -0.012944479 0.33899999
-0.092421576 -0.012906293 0.338
-0.087071985 -0.012906293 0.338
-0.081964172 -0.012944479 0.33899999
-0.076598756 -0.012944479 0.33899999
-0.071233332 -0.012944479 0.33899999
-0 -0 0
-0 -0 0
-0 -0 0
-0.048303463 -0.012562635 0.329
-0.033271924 -0.0096988128 0.25400001
-0.028215336 -0.0093551539 0.245
-0.023840984 -0.0091642318 0.23999999
-0.019791925 -0.0090496792 0.237
-0.015702464 -0.008858758 0.23199999
-0.011874987 -0.0087442053 0.229
-0.008286587 -0.0087823896 0.23
-0.0046867342 -0.008858758 0.23199999
-0.0010235726 -0.0089351265 0.234
0.0027143508 -0.0090496792 0.237
0.006519957 -0.0091260476 0.23899999
0.01043198 -0.0092406012 0.242
0.014615769 -0.0094697066 0.248
0.019512817 -0.0099661024 0.26100001
0.029079054 -0.012257161 0.32100001
0 -0 0
0 -0 0
0 -0 0
0 -0 0
0 -0 0
0 -0 0
0 -0 0
0 -0 0
0 -0 0
0 -0 0
0 -0 0
0 -0 0
0 -0 0
0 -0 0
0 -0 0
0.11174284 -0.012409898 0.32499999
0.11688668 -0.012409898 0.32499999
0.12203052 -0.012409898 0.32499999
0.12678306 -0.012371713 0.324
0.13191107 -0.012371713 0.324
0.13703908 -0.012371713 0.324
0.14172831 -0.012333529 0.32300001
0.14684048 -0.012333529 0.32300001
0.15101179 -0.012257161 0.32100001
0.15560605 -0.012218976 0.31999999
0.16067076 -0.012218976 0.31999999
0.16521753 -0.012180792 0.31900001
0.17026642 -0.012180792 0.31900001
0.17476571 -0.012142608 0.31799999
0.17923336 -0.012104424 0.317
0.18425058 -0.012104424 0.317
0.18867074 -0.012066239 0.31600001
-0 -0 0
-0.22247431 -0.0078004533 0.34900001
-0.21570735 -0.0077557517 0.347
-0.2102153 -0.0077557517 0.347
-0.20472327 -0.0077557517 0.347
-0.19865708 -0.0077334004 0.34599999
-0.19318086 -0.0077334004 0.34599999
-0.18716216 -0.0077110496 0.345
-0.18170176 -0.0077110496 0.345
-0.17573054 -0.0076886988 0.34400001
-0.16979097 -0.007666348 0.34299999
-0.16436224 -0.007666348 0.34299999
-0.15893351 -0.007666348 0.34299999
-0.15350477 -0.007666348 0.34299999
-0.14807606 -0.007666348 0.34299999
-0.14264733 -0.007666348 0.34299999
-0.13681854 -0.0076439972 0.34200001
-0.13140564 -0.0076439972 0.34200001
-0.12562433 -0.0076216464 0.34099999
-0.12022726 -0.0076216464 0.34099999
-0.11483019 -0.0076216464 0.34099999
-0.1091122 -0.0075992956 0.34
-0 -0 0
-0.098349698 -0.0075992956 0.34
-0.092695013 -0.0075769448 0.33899999
-0.0875872 -0.0075992956 0.34
-0.082205959 -0.0075992956 0.34
-0.07682471 -0.0075992956 0.34
-0.071443461 -0.0075992956 0.34
-0.066062212 -0.0075992956 0.34
-0 -0 0
-0 -0 0
-0.048597097 -0.0073981378 0.331
-0.033533908 -0.0057218224 0.25600001
-0.02810017 -0.0054536122 0.244
-0.023840984 -0.0053642085 0.23999999
-0.019875435 -0.0053195069 0.23800001
-0.015770147 -0.0052077523 0.233
-0.011978699 -0.0051630507 0.23100001
-0.008286587 -0.0051406999 0.23
-0.0046867342 -0.0051854015 0.23199999
-0.0010279468 -0.005252454 0.235
0.0027028976 -0.0052748052 0.236
0.006519957 -0.0053418577 0.23899999
0.01043198 -0.0054089101 0.242
0.014556834 -0.0055206646 0.24699999
0.019587578 -0.0058559277 0.26199999
0.028173164 -0.0069511202 0.31099999
0 -0 0
0 -0 0
0 -0 0
0 -0 0
0 -0 0
0 -0 0
0 -0 0
0 -0 0
0 -0 0
0 -0 0
0 -0 0
0 -0 0
0 -0 0
0 -0 0
0.106927 -0.0072863833 0.32600001
0.11208667 -0.0072863833 0.32600001
0.11688668 -0.0072640325 0.32499999
0.12203052 -0.0072640325 0.32499999
0.12717436 -0.0072640325 0.32499999
0.13272533 -0.0072863833 0.32600001
0.13746203 -0.0072640325 0.32499999
0.14216709 -0.0072416817 0.324
0.14684048 -0.0072193309 0.32300001
0.15148224 -0.0071969796 0.322
0.15609232 -0.0071746288 0.32100001
0.16117285 -0.0071746288 0.32100001
0.16573545 -0.007152278 0.31999999
0.17080016 -0.007152278 0.31999999
0.17531529 -0.0071299272 0.31900001
0.18036416 -0.0071299272 0.31900001
0.18483181 -0.0071075764 0.31799999
0.18986486 -0.0071075764 0.31799999
-0 -0 0
-0.22247431 -0.0022745854 0.34900001
-0.21695061 -0.0022745854 0.34900001
-0.21142691 -0.0022745854 0.34900001
-0.20531325 -0.002268068 0.34799999
-0.19980538 -0.002268068 0.34799999
-0.19318086 -0.002255033 0.34599999
-0.18770465 -0.002255033 0.34599999
-0.18222845 -0.002255033 0.34599999
-0.17573054 -0.0022419982 0.34400001
-0.17028598 -0.0022419982 0.34400001
-0.16484143 -0.0022419982 0.34400001
-0.15939687 -0.0022419982 0.34400001
-0.15395232 -0.0022419982 0.34400001
-0.14850776 -0.0022419982 0.34400001
-0.14264733 -0.0022354808 0.34299999
-0.13721859 -0.0022354808 0.34299999
-0.13178986 -0.0022354808 0.34299999
-0.12599273 -0.0022289634 0.34200001
-0.12057983 -0.0022289634 0.34200001
-0.11483019 -0.0022224458 0.34099999
-0.10975403 -0.0022289634 0.34200001
-0.10403603 -0.0022224458 0.34099999
-0.098638959 -0.0022224458 0.34099999
-0.092968449 -0.0022159284 0.34
-0.087844811 -0.0022224458 0.34099999
-0.082447737 -0.0022224458 0.34099999
-0.077050664 -0.0022224458 0.34099999
-0.07165359 -0.0022224458 0.34099999
-0.066256516 -0.0022224458 0.34099999
-0.060680967 -0.0022159284 0.34
-0 -0 0
-0 -0 0
-0.033926886 -0.0016880161 0.259
-0.02810017 -0.0015902545 0.244
-0.023940321 -0.0015707022 0.241
-0.019875435 -0.0015511499 0.23800001
-0.015905514 -0.0015315976 0.235
-0.011978699 -0.0015055279 0.23100001
-0.008286587 -0.0014990104 0.23
-0.0046867342 -0.0015120453 0.23199999
-0.0010235726 -0.0015250802 0.234
0.0027143508 -0.0015446325 0.237
0.0065472373 -0.0015641848 0.23999999
0.01043198 -0.0015772197 0.242
0.014615769 -0.0016163243 0.248
0.019587578 -0.0017075684 0.26199999
0.029260231 -0.002105132 0.32300001
0 -0 0
0 -0 0
0 -0 0
0 -0 0
0 -0 0
0 -0 0
0 -0 0
0 -0 0
0 -0 0
0 -0 0
0 -0 0
0 -0 0
0.097200349 -0.0021377192 0.32800001
0 -0 0
0.107255 -0.0021312018 0.32699999
0.11243049 -0.0021312018 0.32699999
0.11724633 -0.0021246844 0.32600001
0.122406 -0.0021246844 0.32600001
0.12756567 -0.0021246844 0.32600001
0.13272533 -0.0021246844 0.32600001
0.13746203 -0.0021181668 0.32499999
0.14260589 -0.0021181668 0.32499999
0.14684048 -0.002105132 0.32300001
0.15148224 -0.0020986146 0.322
0.15609232 -0.0020920972 0.32100001
0.16117285 -0.0020920972 0.32100001
0.16625339 -0.0020920972 0.32100001
0.17080016 -0.0020855798 0.31999999
0.17586486 -0.0020855798 0.31999999
0.18036416 -0.0020790622 0.31900001
0.18541305 -0.0020790622 0.31900001
0.19046192 -0.0020790622 0.31900001
-0 0 0
-0 0 0
-0.21757224 0.0032605985 0.34999999
-0.21142691 0.0032512825 0.34900001
-0.20590323 0.0032512825 0.34900001
-0.20037954 0.0032512825 0.34900001
-0.19373919 0.0032326505 0.347
-0.18824714 0.0032326505 0.347
-0.18222845 0.0032233344 0.34599999
-0.17624138 0.0032140184 0.345
-0.170781 0.0032140184 0.345
-0.16532062 0.0032140184 0.345
-0.15986024 0.0032140184 0.345
-0.15439986 0.0032140184 0.345
-0.14893948 0.0032140184 0.345
-0.1430632 0.0032047026 0.34400001
-0.13761865 0.0032047026 0.34400001
-0.13178986 0.0031953866 0.34299999
-0.12636113 0.0031953866 0.34299999
-0.12057983 0.0031860706 0.34200001
-0.11516693 0.0031860706 0.34200001
-0.10975403 0.0031860706 0.34200001
-0.10403603 0.0031767546 0.34099999
-0.098928228 0.0031860706 0.34200001
-0.093241885 0.0031767546 0.34099999
-0.087844811 0.0031767546 0.34099999
-0.082689516 0.0031860706 0.34200001
-0.077276617 0.0031860706 0.34200001
-0.071863718 0.0031860706 0.34200001
-0.066450812 0.0031860706 0.34200001
-0.061037913 0.0031860706 0.34200001
-0 0 0
-0 0 0
-0.035498787 0.0025246348 0.271
-0.028445665 0.002301051 0.24699999
-0.02403966 0.0022544709 0.242
-0.019875435 0.0022172069 0.23800001
-0.015905514 0.002189259 0.235
-0.012030554 0.002161311 0.23199999
-0.0083226161 0.002151995 0.23100001
-0.0047069355 0.002170627 0.233
-0.0010235726 0.002179943 0.234
0.0027143508 0.0022078911 0.237
0.0065472373 0.0022358389 0.23999999
0.01043198 0.0022544709 0.242
0.014556834 0.002301051 0.24699999
0.019961387 0.0024873707 0.26699999
0.026904918 0.0027668506 0.29699999
0.035755824 0.0031301745 0.336
0 0 0
0 0 0
0 0 0
0 0 0
0 0 0
0 0 0
0 0 0
0 0 0
0 0 0
0 0 0
0 0 0
0 0 0
0 0 0
0.10758299 0.0030556465 0.32800001
0.11277431 0.0030556465 0.32800001
0.11760598 0.0030463305 0.32699999
0.12278148 0.0030463305 0.32699999
0.12756567 0.0030370145 0.32600001
0.13272533 0.0030370145 0.32600001
0.137885 0.0030370145 0.32600001
0.14260589 0.0030276987 0.32499999
0.1472951 0.0030183827 0.324
0.15195267 0.0030090667 0.32300001
0.15657859 0.0029997507 0.322
0.16167495 0.0029997507 0.322
0.16677131 0.0029997507 0.322
0.17133391 0.0029904346 0.32100001
0.17641445 0.0029904346 0.32100001
0.18092957 0.0029811186 0.31999999
0.18599427 0.0029811186 0.31999999
0.19105898 0.0029811186 0.31999999
-0 0 0
-0 0 0
-0.21819387 0.0088274488 0.35100001
-0.21203272 0.0088022994 0.34999999
-0.20649321 0.0088022994 0.34999999
-0.20037954 0.00877715 0.34900001
-0.19485584 0.00877715 0.34900001
-0.18878965 0.0087520005 0.34799999
-0.18328178 0.0087520005 0.34799999
-0.17726308 0.0087268511 0.347
-0.17127602 0.0087017016 0.34599999
-0.16579981 0.0087017016 0.34599999
-0.1603236 0.0087017016 0.34599999
-0.15484738 0.0087017016 0.34599999
-0.14937118 0.0087017016 0.34599999
-0.14389497 0.0087017016 0.34599999
-0.13841875 0.0087017016 0.34599999
-0.13255832 0.0086765522 0.345
-0.12709793 0.0086765522 0.345
-0.12128498 0.0086514028 0.34400001
-0.11550368 0.0086262543 0.34299999
-0.11007494 0.0086262543 0.34299999
-0.10464622 0.0086262543 0.34299999
-0.099217489 0.0086262543 0.34299999
-0.093515322 0.0086011048 0.34200001
-0.088102423 0.0086011048 0.34200001
-0.082931302 0.0086262543 0.34299999
-0.077502571 0.0086262543 0.34299999
-0 0 0
-0.066645116 0.0086262543 0.34299999
-0.061216384 0.0086262543 0.34299999
-0 0 0
-0 0 0
-0.038249616 0.0073436331 0.292
-0.028445665 0.0062119085 0.24699999
-0.024138996 0.0061113108 0.243
-0.019958947 0.0060107135 0.23899999
-0.015973197 0.0059352652 0.236
-0.01208241 0.0058598169 0.233
-0.0083586443 0.0058346675 0.23199999
-0.0047271373 0.0058849663 0.234
-0.0010279468 0.0059101158 0.235
0.0027258038 0.0059855641 0.23800001
0.006519957 0.0060107135 0.23899999
0.01043198 0.0060861614 0.242
0.0144979 0.0061867591 0.24600001
0.019737102 0.0066394489 0.264
0.025274318 0.0070166904 0.27900001
0.034904495 0.0082490128 0.32800001
0 0 0
0 0 0
0 0 0
0 0 0
0 0 0
0 0 0
0 0 0
0 0 0
0 0 0
0 0 0
0 0 0
0 0 0
0.10270384 0.0082741622 0.329
0.10791099 0.0082741622 0.329
0.11277431 0.0082490128 0.32800001
0.11760598 0.0082238633 0.32699999
0.12278148 0.0082238633 0.32699999
0.12795697 0.0082238633 0.32699999
0.13272533 0.0081987139 0.32600001
0.137885 0.0081987139 0.32600001
0.14304467 0.0081987139 0.32600001
0.14774972 0.0081735644 0.32499999
0.15242311 0.008148415 0.324
0.15706486 0.0081232656 0.32300001
0.16217704 0.0081232656 0.32300001
0.16677131 0.0080981161 0.322
0.17186767 0.0080981161 0.322
0.1775136 0.0081232656 0.32300001
0.18149498 0.0080729667 0.32100001
0.18715674 0.0080981161 0.322
0.19046192 0.0080226678 0.31900001
-0 0 0
-0 0 0
-0 0 0
-0.21203272 0.014344001 0.34999999
-0.20649321 0.014344001 0.34999999
-0.20152783 0.014384984 0.35100001
-0.19541417 0.014344001 0.34999999
-0.18933214 0.014303018 0.34900001
-0.18380846 0.014303018 0.34900001
-0.17777392 0.014262035 0.34799999
-0.17177103 0.014221053 0.347
-0.166279 0.014221053 0.347
-0.16078696 0.014221053 0.347
-0.15529492 0.014221053 0.347
-0.14980289 0.014221053 0.347
-0.14431085 0.014221053 0.347
-0.13881882 0.014221053 0.347
-0.13294254 0.01418007 0.34599999
-0.12746634 0.01418007 0.34599999
-0.12163755 0.014139087 0.345
-0.11584042 0.014098104 0.34400001
-0.11071678 0.014139087 0.345
-0.10495131 0.014098104 0.34400001
-0.099217489 0.014057121 0.34299999
-0.093788758 0.014057121 0.34299999
-0.088617638 0.014098104 0.34400001
-0.083173081 0.014098104 0.34400001
-0.077728525 0.014098104 0.34400001
-0.072283968 0.014098104 0.34400001
-0.066645116 0.014057121 0.34299999
-0.061394859 0.014098104 0.34400001
-0.055787656 0.014057121 0.34299999
-0.049918469 0.013934173 0.34
-0.034319859 0.010737509 0.26199999
-0.028330499 0.010081784 0.24600001
-0.02403966 0.0099178525 0.242
-0.020042457 0.0098358868 0.23999999
-0.01604088 0.0097129382 0.237
-0.01208241 0.0095490068 0.233
-0.0083586443 0.009508024 0.23199999
-0.0047069355 0.0095490068 0.233
-0.0010279468 0.0096309725 0.235
0.0027143508 0.0097129382 0.237
0.006519957 0.0097949039 0.23899999
0.010388873 0.0098768696 0.241
0.014438965 0.010040801 0.245
0.019363293 0.010614561 0.259
0.024730783 0.011188321 0.273
0.033946753 0.013073533 0.31900001
0 0 0
0 0 0
0 0 0
0 0 0
0 0 0
0 0 0
0 0 0
0 0 0
0 0 0
0.087611772 0.013565327 0.331
0.092570059 0.013524344 0.33000001
0.097793035 0.013524344 0.33000001
0 0 0
0.10791099 0.013483361 0.329
0.11277431 0.013442378 0.32800001
0.11796564 0.013442378 0.32800001
0.12315696 0.013442378 0.32800001
0.12795697 0.013401396 0.32699999
0.13313247 0.013401396 0.32699999
0.13830796 0.013401396 0.32699999
0.14304467 0.013360413 0.32600001
0.14820433 0.013360413 0.32600001
0.15289356 0.01331943 0.32499999
0.15755112 0.013278447 0.324
0.16217704 0.013237464 0.32300001
0.16728923 0.013237464 0.32300001
0.17240141 0.013237464 0.32300001
0.1775136 0.013237464 0.32300001
0.18262579 0.013237464 0.32300001
0.18773797 0.013237464 0.32300001
0.19165604 0.013155499 0.32100001
-0 0 0
-0 0 0
-0 0 0
-0 0 0
-0.20767316 0.019999335 0.352
-0.20210199 0.019999335 0.352
-0.19597249 0.019942518 0.35100001
-0.18987465 0.019885702 0.34999999
-0.18433513 0.019885702 0.34999999
-0.17879561 0.019885702 0.34999999
-0.17276107 0.019828886 0.34900001
-0.16723739 0.019828886 0.34900001
-0.16125032 0.01977207 0.34799999
-0.15574247 0.01977207 0.34799999
-0.15023459 0.01977207 0.34799999
-0.14472672 0.01977207 0.34799999
-0.13921887 0.01977207 0.34799999
-0.13332677 0.019715253 0.347
-0.12783474 0.019715253 0.347
-0.12199012 0.019658437 0.34599999
-0.11617716 0.019601621 0.345
-0.11071678 0.019601621 0.345
-0.1052564 0.019601621 0.345
-0.099796019 0.019601621 0.345
-0.094062194 0.019544804 0.34400001
-0.088875249 0.019601621 0.345
-0.083414868 0.019601621 0.345
-0.077954486 0.019601621 0.345
-0.072283968 0.019544804 0.34400001
-0.066839412 0.019544804 0.34400001
-0.061394859 0.019544804 0.34400001
-0.055787656 0.019487988 0.34299999
-0.05006529 0.019374356 0.34099999
-0.034712836 0.015056318 0.26499999
-0.028215336 0.013919991 0.245
-0.02403966 0.013749543 0.242
-0.020042457 0.01363591 0.23999999
-0.016108563 0.013522278 0.23800001
-0.012186122 0.013351829 0.235
-0.0083586443 0.01318138 0.23199999
-0.0047069355 0.013238196 0.233
-0.0010235726 0.013295013 0.234
0.0027143508 0.013465461 0.237
0.006519957 0.013579094 0.23899999
0.010345765 0.01363591 0.23999999
0.014380031 0.013863175 0.244
0.019064246 0.014488155 0.255
0.024730783 0.015510848 0.273
0.032989006 0.017613051 0.31
0 0 0
0 0 0
0 0 0
0 0 0
0 0 0
0 0 0
0 0 0
0 0 0
0.082621828 0.018863009 0.33199999
0.087611772 0.018806193 0.331
0 0 0
0.098089375 0.018806193 0.331
0.10301601 0.018749377 0.33000001
0.10823899 0.018749377 0.33000001
0.11311814 0.01869256 0.329
0.11832529 0.01869256 0.329
0.12315696 0.018635744 0.32800001
0.12873958 0.01869256 0.329
0.1335396 0.018635744 0.32800001
0.13873091 0.018635744 0.32800001
0.14348346 0.018578928 0.32699999
0.14820433 0.018522112 0.32600001
0.153364 0.018522112 0.32600001
0.15803739 0.018465295 0.32499999
0.16318123 0.018465295 0.32499999
0.16832508 0.018465295 0.32499999
0.17346892 0.018465295 0.32499999
0.17861275 0.018465295 0.32499999
0.1831912 0.018408479 0.324
0.18831921 0.018408479 0.324
0.1922531 0.018294847 0.322
-0 0 0
-0 0 0
-0 0 0
-0 0 0
-0.20826314 0.025645353 0.35299999
-0.20267615 0.025645353 0.35299999
-0.19708915 0.025645353 0.35299999
-0.19095965 0.025572702 0.352
-0.18486179 0.025500054 0.35100001
-0.17930645 0.025500054 0.35100001
-0.17325608 0.025427403 0.34999999
-0.16771658 0.025427403 0.34999999
-0.16217706 0.025427403 0.34999999
-0.15618999 0.025354754 0.34900001
-0.15109801 0.025427403 0.34999999
-0.14514261 0.025354754 0.34900001
-0.13961892 0.025354754 0.34900001
-0.133711 0.025282104 0.34799999
-0.12783474 0.025209455 0.347
-0.1223427 0.025209455 0.347
-0.11651392 0.025136804 0.34599999
-0.1110377 0.025136804 0.34599999
-0.10556149 0.025136804 0.34599999
-0.10008528 0.025136804 0.34599999
-0.094062194 0.024991505 0.34400001
-0.088875249 0.025064155 0.345
-0.083656646 0.025136804 0.34599999
-0.077954486 0.025064155 0.345
-0.072494097 0.025064155 0.345
-0.067033716 0.025064155 0.345
-0.061394859 0.024991505 0.34400001
-0.055950303 0.024991505 0.34400001
-0.050358929 0.024918856 0.34299999
-0.036153745 0.020051325 0.27599999
-0.02810017 0.017726533 0.244
-0.02403966 0.017581234 0.242
-0.020125967 0.017508583 0.241
-0.016176246 0.017363284 0.23899999
-0.012134266 0.017000036 0.234
-0.0083586443 0.016854737 0.23199999
-0.0047271373 0.017000036 0.234
-0.0010279468 0.017072685 0.235
0.0027143508 0.017217984 0.237
0.006519957 0.017363284 0.23899999
0.010345765 0.017435934 0.23999999
0.014321096 0.017653883 0.243
0.018989485 0.01845303 0.25400001
0.024459016 0.019615425 0.27000001
0.034053169 0.023247913 0.31999999
0 0 0
0 0 0
0 0 0
0.05668813 0.024265008 0.33399999
0 0 0
0 0 0
0.072329774 0.024192359 0.333
0 0 0
0.082621828 0.024119709 0.33199999
0.088141151 0.024192359 0.333
0.093131088 0.024119709 0.33199999
0.098385721 0.024119709 0.33199999
0.10332818 0.024047058 0.331
0.10823899 0.023974409 0.33000001
0.11311814 0.023901759 0.329
0.11832529 0.023901759 0.329
0.12353244 0.023901759 0.329
0.12873958 0.023901759 0.329
0.13394673 0.023901759 0.329
0.13873091 0.02382911 0.32800001
0.14392224 0.02382911 0.32800001
0.14865895 0.023756459 0.32699999
0.153364 0.023683811 0.32600001
0.15852366 0.023683811 0.32600001
0.16368334 0.023683811 0.32600001
0.168843 0.023683811 0.32600001
0.17453642 0.023756459 0.32699999
0.17916234 0.023683811 0.32600001
0.184322 0.023683811 0.32600001
0.18831921 0.023538511 0.324
0.19285016 0.023465861 0.32300001
-0 0 0
-0 0 0
-0 0 0
-0 0 0
-0 0 0
-0.2032503 0.031323038 0.354
-0.19708915 0.031234555 0.35299999
-0.19150214 0.031234555 0.35299999
-0.18538848 0.031146072 0.352
-0.1798173 0.031146072 0.352
-0.1737511 0.031057589 0.35100001
-0.16819575 0.031057589 0.35100001
-0.16264041 0.031057589 0.35100001
-0.15663753 0.030969106 0.34999999
-0.15109801 0.030969106 0.34999999
-0.14555849 0.030969106 0.34999999
-0.13961892 0.030880623 0.34900001
-0.13409522 0.030880623 0.34900001
-0.12820314 0.030792139 0.34799999
-0.12269527 0.030792139 0.34799999
-0.11685066 0.030703656 0.347
-0.11135862 0.030703656 0.347
-0.10556149 0.030615173 0.34599999
-0.10008528 0.030615173 0.34599999
-0.094609067 0.030615173 0.34599999
-0.08913286 0.030615173 0.34599999
-0.083898433 0.030703656 0.347
-0.07818044 0.030615173 0.34599999
-0.072494097 0.030526688 0.345
-0.067228019 0.030615173 0.34599999
-0.061751805 0.030615173 0.34599999
-0.056112949 0.030526688 0.345
-0.050358929 0.030349722 0.34299999
-0.03589176 0.024244385 0.27399999
-0.028445665 0.021855339 0.24699999
-0.024138996 0.021501407 0.243
-0.020125967 0.021324441 0.241
-0.016176246 0.021147475 0.23899999
-0.012289833 0.020970508 0.237
-0.0084307017 0.020705059 0.234
-0.0047069355 0.020616576 0.233
-0.0010279468 0.020793542 0.235
0.0027143508 0.020970508 0.237
0.006519957 0.021147475 0.23899999
0.010388873 0.021324441 0.241
0.014380031 0.02158989 0.244
0.018989485 0.022474721 0.25400001
0.024549605 0.023978936 0.271
0.03703282 0.030792139 0.34799999
0 0 0
0 0 0
0.05186354 0.029818824 0.33700001
0.057027582 0.02973034 0.336
0 0 0
0.067462079 0.029641857 0.33500001
0.072329774 0.029464891 0.333
0.077833265 0.029553374 0.33399999
0.083119556 0.029553374 0.33399999
0.088141151 0.029464891 0.333
0.09341161 0.029464891 0.333
0.098682061 0.029464891 0.333
0.10364035 0.029376408 0.33199999
0.10856698 0.029287925 0.331
0.11346196 0.029199442 0.33000001
0.11868494 0.029199442 0.33000001
0.12390792 0.029199442 0.33000001
0.12952219 0.029287925 0.331
0.13435386 0.029199442 0.33000001
0.13915388 0.029110959 0.329
0.14436103 0.029110959 0.329
0.14911357 0.029022476 0.32800001
0.15383445 0.028933993 0.32699999
0.15900993 0.028933993 0.32699999
0.16418543 0.028933993 0.32699999
0.16987884 0.029022476 0.32800001
0.17507017 0.029022476 0.32800001
0.18026149 0.029022476 0.32800001
0.184322 0.02884551 0.32600001
0.18890044 0.028757026 0.32499999
0 0 0
-0 0 0
-0 0 0
-0 0 0
-0 0 0
-0 0 0
-0.20382446 0.037032388 0.35499999
-0.1982058 0.037032388 0.35499999
-0.19258714 0.037032388 0.35499999
-0.18591514 0.036823757 0.35299999
-0.18032815 0.036823757 0.35299999
-0.17424612 0.036719438 0.352
-0.16867495 0.036719438 0.352
-0.16264041 0.036615122 0.35100001
-0.15708506 0.036615122 0.35100001
-0.15152971 0.036615122 0.35100001
-0.14597437 0.036615122 0.35100001
-0.14041902 0.036615122 0.35100001
-0.13447945 0.036510807 0.34999999
-0.12857154 0.036406491 0.34900001
-0.12304784 0.036406491 0.34900001
-0.1171874 0.036302172 0.34799999
-0.11167954 0.036302172 0.34799999
-0.10586658 0.036197856 0.347
-0.10037454 0.036197856 0.347
-0.094882503 0.036197856 0.347
-0.089390472 0.036197856 0.347
-0.084140211 0.036302172 0.34799999
-0.078406394 0.036197856 0.347
-0.072914355 0.036197856 0.347
-0.067228019 0.03609354 0.34599999
-0.061573334 0.035989225 0.345
-0.056112949 0.035989225 0.345
-0.050358929 0.03578059 0.34299999
-0.035629779 0.028374113 0.27200001
-0.029136652 0.026392097 0.25299999
-0.024238333 0.025453247 0.244
-0.020292988 0.025348932 0.243
-0.016243929 0.025035981 0.23999999
-0.012341689 0.024827348 0.23800001
-0.0084667299 0.024514398 0.235
-0.0047271373 0.024410082 0.234
-0.0010279468 0.024514398 0.235
0.0027143508 0.024723032 0.237
0.0065745176 0.025140299 0.241
0.01043198 0.025244614 0.242
0.014438965 0.025557565 0.245
0.018914724 0.026392097 0.25299999
0.026180206 0.030147495 0.289
0.036500737 0.03578059 0.34299999
0 0 0
0 0 0
0 0 0
0.057027582 0.035050374 0.336
0 0 0
0.067462079 0.034946058 0.33500001
0.072764188 0.034946058 0.33500001
0.077833265 0.034841742 0.33399999
0.083119556 0.034841742 0.33399999
0.088670522 0.034946058 0.33500001
0.093692124 0.034841742 0.33399999
0.098682061 0.034737423 0.333
0.10395252 0.034737423 0.333
0.10889498 0.034633107 0.33199999
0.11414961 0.034633107 0.33199999
0.11904459 0.034528792 0.331
0.12465887 0.034633107 0.33199999
0.12952219 0.034528792 0.331
0.13476099 0.034528792 0.331
0.13957684 0.034424476 0.33000001
0.14479981 0.034424476 0.33000001
0.14956817 0.034320157 0.329
0.15430488 0.034215841 0.32800001
0.15998247 0.034320157 0.329
0.16518962 0.034320157 0.329
0.17039678 0.034320157 0.329
0.17560391 0.034320157 0.329
0.18026149 0.034215841 0.32800001
0.184322 0.034007207 0.32600001
0 0 0
0 0 0
-0 0 0
-0 0 0
-0 0 0
-0 0 0
-0 0 0
-0 0 0
-0.19876413 0.042773407 0.35600001
-0.19258714 0.042653259 0.35499999
-0.18644181 0.042533107 0.354
-0.18083899 0.042533107 0.354
-0.17474115 0.042412959 0.35299999
-0.16867495 0.042292807 0.352
-0.16310377 0.042292807 0.352
-0.1575326 0.042292807 0.352
-0.15196143 0.042292807 0.352
-0.14597437 0.042172659 0.35100001
-0.14081909 0.042292807 0.352
-0.13486367 0.042172659 0.35100001
-0.12893993 0.042052507 0.34999999
-0.12304784 0.041932359 0.34900001
-0.11752415 0.041932359 0.34900001
-0.11167954 0.041812208 0.34799999
-0.10586658 0.041692056 0.347
-0.10066381 0.041812208 0.34799999
-0.095155947 0.041812208 0.34799999
-0.089648075 0.041812208 0.34799999
-0.084140211 0.041812208 0.34799999
-0.078406394 0.041692056 0.347
-0.072914355 0.041692056 0.347
-0.067422315 0.041692056 0.347
-0.061751805 0.041571908 0.34599999
-0.056275595 0.041571908 0.34599999
-0.050652564 0.041451756 0.345
-0.042703338 0.039168905 0.32600001
-0.02959731 0.030878555 0.257
-0.024635684 0.029797206 0.248
-0.020376498 0.029316606 0.244
-0.016379295 0.029076306 0.242
-0.012393545 0.028715855 0.23899999
-0.008502759 0.028355405 0.236
-0.0047473386 0.028235255 0.235
-0.0010323211 0.028355405 0.236
0.0027372567 0.028715855 0.23899999
0.0066017974 0.029076306 0.242
0.010518194 0.029316606 0.244
0.014615769 0.029797206 0.248
0.019363293 0.031118855 0.259
0.028173164 0.037366658 0.31099999
0.036287908 0.040971156 0.34099999
0 0 0
0 0 0
0.052171335 0.040730856 0.33899999
0.057197306 0.040490557 0.33700001
0 0 0
0.067663461 0.040370408 0.336
0.072981395 0.040370408 0.336
0.078299336 0.040370408 0.336
0.083368413 0.040250257 0.33500001
0.088935211 0.040370408 0.336
0.093972638 0.040250257 0.33500001
0.099274747 0.040250257 0.33500001
0.10395252 0.040009957 0.333
0.10922298 0.040009957 0.333
0.11449344 0.040009957 0.333
0.11940424 0.039889809 0.33199999
0.12465887 0.039889809 0.33199999
0.12991349 0.039889809 0.33199999
0.13516814 0.039889809 0.33199999
0.13999981 0.039769657 0.331
0.14523861 0.039769657 0.331
0.15002279 0.039649509 0.33000001
0.15524577 0.039649509 0.33000001
0.16046874 0.039649509 0.33000001
0.16569172 0.039649509 0.33000001
0.17091469 0.039649509 0.33000001
0.17613767 0.039649509 0.33000001
0.18081106 0.039529357 0.329
0.18488741 0.039289057 0.32699999
0 0 0
0 0 0
-0 0 0
-0 0 0
-0 0 0
-0 0 0
-0 0 0
-0 0 0
-0 0 0
-0.19367214 0.048546094 0.35699999
-0.18749516 0.04841011 0.35600001
-0.18083899 0.048138142 0.354
-0.17523617 0.048138142 0.354
-0.16915414 0.048002161 0.35299999
-0.16356714 0.048002161 0.35299999
-0.1575326 0.047866177 0.352
-0.15239313 0.048002161 0.35299999
-0.14680614 0.048002161 0.35299999
-0.14121914 0.048002161 0.35299999
-0.13486367 0.047730193 0.35100001
-0.12930833 0.047730193 0.35100001
-0.12340041 0.047594208 0.34999999
-0.1178609 0.047594208 0.34999999
-0.11200046 0.047458224 0.34900001
-0.10647676 0.047458224 0.34900001
-0.10095307 0.047458224 0.34900001
-0.095155947 0.047322243 0.34799999
-0.089905687 0.047458224 0.34900001
-0.084381998 0.047458224 0.34900001
-0.078858301 0.047458224 0.34900001
-0.073124483 0.047322243 0.34799999
-0.067422315 0.047186259 0.347
-0.06193028 0.047186259 0.347
-0.056275595 0.047050275 0.34599999
-0.050799385 0.047050275 0.34599999
-0.04506119 0.046778306 0.34400001
-0.035701036 0.042154871 0.31
-0.025033033 0.034267832 0.252
-0.020627027 0.033587914 0.24699999
-0.016582344 0.033315945 0.245
-0.012497257 0.032772012 0.241
-0.0085748164 0.032364063 0.23800001
-0.0047675399 0.032092094 0.236
-0.0010366953 0.032228079 0.237
0.0027487096 0.032636028 0.23999999
0.006656358 0.033179961 0.244
0.010647517 0.033587914 0.24699999
0.014792573 0.034131847 0.25099999
0.019886626 0.0361716 0.266
0.03179672 0.047730193 0.35100001
0.036287908 0.046370357 0.34099999
0 0 0
0 0 0
0 0 0
0.057536755 0.046098392 0.33899999
0.062716626 0.045962408 0.338
0.068066217 0.045962408 0.338
0.073198602 0.045826424 0.33700001
0.078532368 0.045826424 0.33700001
0.083866134 0.045826424 0.33700001
0.088935211 0.04569044 0.336
0.094253153 0.04569044 0.336
0.099571094 0.04569044 0.336
0.10426469 0.045418475 0.33399999
0.10987897 0.045554455 0.33500001
0.11483726 0.045418475 0.33399999
0.11976389 0.045282491 0.333
0.12503435 0.045282491 0.333
0.13030481 0.045282491 0.333
0.13557526 0.045282491 0.333
0.14084572 0.045282491 0.333
0.14567739 0.045146506 0.33199999
0.15047741 0.045010522 0.331
0.15618666 0.045146506 0.33199999
0.16095501 0.045010522 0.331
0.16619381 0.045010522 0.331
0.17143261 0.045010522 0.331
0.17613767 0.044874541 0.33000001
0.18026149 0.044602573 0.32800001
0 0 0
0 0 0
0 0 0
-0 0 0
-0 0 0
-0 0 0
-0 0 0
-0 0 0
-0 0 0
-0 0 0
-0.19367214 0.05419863 0.35699999
-0.18749516 0.054046813 0.35600001
-0.18186067 0.054046813 0.35600001
-0.17573118 0.053894993 0.35499999
-0.17011252 0.053894993 0.35499999
-0.16403051 0.053743176 0.354
-0.15842767 0.053743176 0.354
-0.15282485 0.053743176 0.354
-0.14722201 0.053743176 0.354
-0.14121914 0.053591359 0.35299999
-0.13563213 0.053591359 0.35299999
-0.12967673 0.053439543 0.352
-0.12375299 0.053287726 0.35100001
-0.1178609 0.053135909 0.34999999
-0.11232138 0.053135909 0.34999999
-0.10678186 0.053135909 0.34999999
-0.10124233 0.053135909 0.34999999
-0.095429383 0.052984092 0.34900001
-0.090163298 0.053135909 0.34999999
-0.084623776 0.053135909 0.34999999
-0.078858301 0.052984092 0.34900001
-0.073124483 0.052832276 0.34799999
-0.067616619 0.052832276 0.34799999
-0.062108751 0.052832276 0.34799999
-0.056438241 0.052680459 0.347
-0.050799385 0.052528642 0.34599999
-0.045192182 0.052376825 0.345
-0.03950147 0.052073192 0.34299999
-0.02672177 0.040838741 0.26899999
-0.020794049 0.037802406 0.249
-0.016785393 0.037650589 0.248
-0.012704681 0.037195139 0.245
-0.0086468738 0.036436051 0.23999999
-0.0048281443 0.036284234 0.23899999
-0.0010410696 0.036132418 0.23800001
0.0027830685 0.036891505 0.243
0.0067381985 0.037498772 0.24699999
0.010819945 0.038106039 0.25099999
0.01514618 0.03901694 0.257
0.02392376 0.048581403 0.31999999
0.031162599 0.052225009 0.34400001
0.036500737 0.052073192 0.34299999
0.041807223 0.051921375 0.34200001
0 0 0
0.052479129 0.051769558 0.34099999
0.057706479 0.051617742 0.34
0.062902175 0.051465925 0.33899999
0.068267599 0.051465925 0.33899999
0.073415808 0.051314108 0.338
0.0787654 0.051314108 0.338
0.084114999 0.051314108 0.338
0.089199901 0.051162291 0.33700001
0.094533667 0.051162291 0.33700001
0.099867433 0.051162291 0.33700001
0.10488903 0.051010475 0.336
0.11020697 0.051010475 0.336
0.11483726 0.050706841 0.33399999
0.12012354 0.050706841 0.33399999
0.12540983 0.050706841 0.33399999
0.13108742 0.050858658 0.33500001
0.13598239 0.050706841 0.33399999
0.14084572 0.050555024 0.333
0.14611618 0.050555024 0.333
0.15093201 0.050403208 0.33199999
0.15618666 0.050403208 0.33199999
0.16192755 0.050555024 0.333
0.16669591 0.050403208 0.33199999
0.17195053 0.050403208 0.33199999
0.17667142 0.050251391 0.331
0.18081106 0.049947757 0.329
0 0 0
0 0 0
0 0 0
-0 0 0
-0 0 0
-0 0 0
-0 0 0
-0 0 0
-0 0 0
-0 0 0
-0 0 0
-0.18854851 0.060018815 0.35800001
-0.18237153 0.059851162 0.35699999
-0.17672122 0.059851162 0.35699999
-0.17059171 0.059683513 0.35600001
-0.16495723 0.059683513 0.35600001
-0.15887521 0.059515864 0.35499999
-0.15282485 0.059348214 0.354
-0.14722201 0.059348214 0.354
-0.14161919 0.059348214 0.354
-0.13601635 0.059348214 0.354
-0.12967673 0.059012912 0.352
-0.12410556 0.059012912 0.352
-0.11819764 0.058845263 0.35100001
-0.11232138 0.05867761 0.34999999
-0.10678186 0.05867761 0.34999999
-0.1015316 0.058845263 0.35100001
-0.09570282 0.05867761 0.34999999
-0.090163298 0.05867761 0.34999999
-0.084865563 0.058845263 0.35100001
-0.079084255 0.05867761 0.34999999
-0.073334612 0.058509961 0.34900001
-0.067810915 0.058509961 0.34900001
-0.062287226 0.058509961 0.34900001
-0.056600887 0.058342312 0.34799999
-0.050946202 0.058174662 0.347
-0.045454167 0.058174662 0.347
-0.039846964 0.058007009 0.34599999
-0.033874065 0.057168759 0.34099999
-0.023883928 0.047947992 0.28600001
-0.017326858 0.042918481 0.25600001
-0.012912104 0.041744929 0.249
-0.0087549593 0.040739026 0.243
-0.0048685474 0.040403727 0.241
-0.0010585666 0.040571377 0.242
0.0028059743 0.041074328 0.245
0.0069564395 0.042750832 0.255
0.011682093 0.045433238 0.271
0.019330533 0.054989304 0.32800001
0.02564328 0.057504058 0.34299999
0.031162599 0.057671711 0.34400001
0.036607154 0.057671711 0.34400001
0.041929469 0.057504058 0.34299999
0 0 0
0.052633028 0.057336409 0.34200001
0.057876207 0.057168759 0.34099999
0.063087732 0.05700111 0.34
0.068267599 0.056833457 0.33899999
0.073633015 0.056833457 0.33899999
0.078998439 0.056833457 0.33899999
0.084363855 0.056833457 0.33899999
0.089729279 0.056833457 0.33899999
0.094814181 0.056665808 0.338
0.10016377 0.056665808 0.338
0.10488903 0.056330506 0.336
0.11020697 0.056330506 0.336
0.11552491 0.056330506 0.336
0.1204832 0.056162857 0.33500001
0.12616079 0.056330506 0.336
0.13147873 0.056330506 0.336
0.13638952 0.056162857 0.33500001
0.14126869 0.055995207 0.33399999
0.14655496 0.055995207 0.33399999
0.15138663 0.055827554 0.333
0.15665708 0.055827554 0.333
0.16192755 0.055827554 0.333
0.167198 0.055827554 0.333
0.17195053 0.055659905 0.33199999
0.17720518 0.055659905 0.33199999
0 0 0
0 0 0
0 0 0
0 0 0
-0 0 0
-0 0 0
-0 0 0
-0 0 0
-0 0 0
-0 0 0
-0 0 0
-0 0 0
-0.18907517 0.065870665 0.359
-0.18288237 0.06568718 0.35800001
-0.17721623 0.06568718 0.35800001
-0.1710709 0.065503702 0.35699999
-0.16542059 0.065503702 0.35699999
-0.15932275 0.065320216 0.35600001
-0.15325655 0.065136731 0.35499999
-0.14805378 0.065320216 0.35600001
-0.14201924 0.065136731 0.35499999
-0.1364006 0.065136731 0.35499999
-0.13004513 0.064769767 0.35299999
-0.12445813 0.064769767 0.35299999
-0.11853439 0.064586282 0.352
-0.1126423 0.064402796 0.35100001
-0.10708695 0.064402796 0.35100001
-0.10182086 0.064586282 0.352
-0.096249692 0.064586282 0.352
-0.090678513 0.064586282 0.352
-0.084865563 0.064402796 0.35100001
-0.079310216 0.064402796 0.35100001
-0.073544741 0.064219311 0.34999999
-0.068005219 0.064219311 0.34999999
-0.062465701 0.064219311 0.34999999
-0.056763534 0.064035825 0.34900001
-0.051093023 0.063852347 0.34799999
-0.045716148 0.064035825 0.34900001
-0.039962128 0.063668862 0.347
-0.034470089 0.063668862 0.347
-0.028978052 0.063668862 0.347
-0.020778691 0.056329511 0.30700001
-0.01332695 0.047155324 0.257
-0.0088630449 0.045137003 0.24600001
-0.0049089501 0.04458655 0.243
-0.0010673151 0.044770036 0.244
0.0028517861 0.045687456 0.249
0.0072019608 0.048439711 0.264
0.012414918 0.052843321 0.28799999
0.020921767 0.065136731 0.35499999
0.025792804 0.063301891 0.345
0.031253189 0.063301891 0.345
0.03671357 0.063301891 0.345
0.04205171 0.063118413 0.34400001
0.047496267 0.063118413 0.34400001
0.052633028 0.062751442 0.34200001
0.057876207 0.062567957 0.34099999
0.063273281 0.062567957 0.34099999
0.068670355 0.062567957 0.34099999
0.074067429 0.062567957 0.34099999
0.079231471 0.062384475 0.34
0.084861577 0.062567957 0.34099999
0.089993969 0.062384475 0.34
0.095094696 0.062200993 0.33899999
0.10046012 0.062200993 0.33899999
0.10551337 0.062017508 0.338
0.11086296 0.062017508 0.338
0.11586873 0.061834022 0.33700001
0.12084284 0.061650541 0.336
0.12616079 0.061650541 0.336
0.13147873 0.061650541 0.336
0.13679667 0.061650541 0.336
0.14211459 0.061650541 0.336
0.14699376 0.061467055 0.33500001
0.15229586 0.061467055 0.33500001
0.15712753 0.061283574 0.33399999
0.16241382 0.061283574 0.33399999
0.1677001 0.061283574 0.33399999
0.17246847 0.061100088 0.333
0 0 0
0 0 0
0 0 0
0 0 0
0 0 0
-0 0 0
-0 0 0
-0 0 0
-0 0 0
-0 0 0
-0 0 0
-0 0 0
-0 0 0
-0 0 0
-0.18339321 0.071554869 0.359
-0.17771125 0.071554869 0.359
-0.17202929 0.071554869 0.359
-0.16588396 0.071355551 0.35800001
-0.16021782 0.071355551 0.35800001
-0.15411997 0.071156234 0.35699999
-0.14846966 0.071156234 0.35699999
-0.14241929 0.070956916 0.35600001
-0.1364006 0.070757598 0.35499999
-0.13041353 0.07055828 0.354
-0.1248107 0.07055828 0.354
-0.11887113 0.070358969 0.35299999
-0.11328413 0.070358969 0.35299999
-0.10739204 0.070159651 0.352
-0.10211013 0.070358969 0.35299999
-0.096523128 0.070358969 0.35299999
-0.090936124 0.070358969 0.35299999
-0.085349128 0.070358969 0.35299999
-0.07953617 0.070159651 0.352
-0.073964991 0.070159651 0.352
-0.068393819 0.070159651 0.352
-0.062822647 0.070159651 0.352
-0.05692618 0.069761015 0.34999999
-0.051386662 0.069761015 0.34999999
-0.04584714 0.069761015 0.34999999
-0.040192455 0.069561698 0.34900001
-0.034668766 0.069561698 0.34900001
-0.029145071 0.069561698 0.34900001
-0.023486014 0.069163062 0.347
-0.014364067 0.055210859 0.27700001
-0.009079217 0.050227929 0.252
-0.0049897558 0.049231343 0.24699999
-0.001084812 0.049430661 0.248
0.002909051 0.050626565 0.25400001
0.0074202023 0.054214273 0.27200001
0.013018421 0.060193788 0.30199999
0.020509224 0.06936238 0.34799999
0.025867566 0.068963744 0.34599999
0.031343777 0.068963744 0.34599999
0.03671357 0.068764426 0.345
0.04205171 0.068565108 0.34400001
0.047496267 0.068565108 0.34400001
0.052786928 0.068365797 0.34299999
0.058045931 0.068166479 0.34200001
0.063273281 0.067967162 0.34099999
0.068871737 0.068166479 0.34200001
0.074067429 0.067967162 0.34099999
0.079697542 0.068166479 0.34200001
0.084861577 0.067967162 0.34099999
0.09025865 0.067967162 0.34099999
0.09537521 0.067767844 0.34
0.10075646 0.067767844 0.34
0.10582554 0.067568526 0.33899999
0.11119096 0.067568526 0.33899999
0.11621255 0.067369208 0.338
0.1212025 0.06716989 0.33700001
0.12691174 0.067369208 0.338
0.13226134 0.067369208 0.338
0.1372038 0.06716989 0.33700001
0.14253756 0.06716989 0.33700001
0.14743254 0.066970572 0.336
0.15229586 0.066771254 0.33500001
0.15759797 0.066771254 0.33500001
0.16290009 0.066771254 0.33500001
0.1677001 0.066571936 0.33399999
0.17350431 0.066771254 0.33500001
0 0 0
0 0 0
0 0 0
0 0 0
0 0 0
-0 0 0
-0 0 0
-0 0 0
-0 0 0
-0 0 0
-0 0 0
-0 0 0
-0 0 0
-0 0 0
-0 0 0
-0.17870128 0.077669375 0.361
-0.17202929 0.077239074 0.359
-0.16634732 0.077239074 0.359
-0.16066535 0.077239074 0.359
-0.15498339 0.077239074 0.359
-0.14888555 0.077023923 0.35800001
-0.14281934 0.076808773 0.35699999
-0.13678482 0.076593623 0.35600001
-0.13078193 0.076378472 0.35499999
-0.12516327 0.076378472 0.35499999
-0.11920787 0.076163314 0.354
-0.11360504 0.076163314 0.354
-0.10800222 0.076163314 0.354
-0.10268866 0.076378472 0.35499999
-0.096796565 0.076163314 0.354
-0.091193736 0.076163314 0.354
-0.085590906 0.076163314 0.354
-0.079988077 0.076163314 0.354
-0.074175119 0.075948164 0.35299999
-0.068588123 0.075948164 0.35299999
-0.062822647 0.075733013 0.352
-0.057251472 0.075733013 0.352
-0.051533479 0.075517863 0.35100001
-0.045978133 0.075517863 0.35100001
-0.040307622 0.075302713 0.34999999
-0.034768101 0.075302713 0.34999999
-0.029312093 0.075517863 0.35100001
-0.023689063 0.075302713 0.34999999
-0.01706057 0.070784554 0.329
-0.0094395038 0.056369461 0.26199999
-0.0050705615 0.054002803 0.25099999
-0.0011066833 0.054433107 0.25299999
0.0029663157 0.05572401 0.259
0.0076930039 0.060672473 0.28200001
0.013578816 0.067772441 0.315
0.02045029 0.074657261 0.347
0.025942327 0.074657261 0.347
0.031434365 0.074657261 0.347
0.036926404 0.074657261 0.347
0.042173956 0.074226961 0.345
0.047634337 0.074226961 0.345
0.052940823 0.07401181 0.34400001
0.058215655 0.07379666 0.34299999
0.06345883 0.073581509 0.34200001
0.069073111 0.07379666 0.34299999
0.074284635 0.073581509 0.34200001
0.079697542 0.073581509 0.34200001
0.085110441 0.073581509 0.34200001
0.09052334 0.073581509 0.34200001
0.095655732 0.073366359 0.34099999
0.10075646 0.073151208 0.34
0.10582554 0.072936058 0.33899999
0.11119096 0.072936058 0.33899999
0.11655638 0.072936058 0.33899999
0.12156215 0.072720908 0.338
0.12728722 0.072936058 0.33899999
0.13226134 0.072720908 0.338
0.13761093 0.072720908 0.338
0.14253756 0.072505757 0.33700001
0.14787133 0.072505757 0.33700001
0.15275048 0.072290607 0.336
0.15759797 0.072075456 0.33500001
0.16338636 0.072290607 0.336
0.16820219 0.072075456 0.33500001
0 0 0
0 0 0
0 0 0
0 0 0
0 0 0
0 0 0
-0 0 0
-0 0 0
-0 0 0
-0 0 0
-0 0 0
-0 0 0
-0 0 0
-0 0 0
-0 0 0
-0 0 0
-0.1791963 0.083616227 0.36199999
-0.17298767 0.083385244 0.361
-0.16727404 0.083385244 0.361
-0.16111289 0.083154254 0.36000001
-0.15498339 0.082923271 0.359
-0.14888555 0.082692288 0.35800001
-0.14281934 0.082461305 0.35699999
-0.13755327 0.082692288 0.35800001
-0.13151874 0.082461305 0.35699999
-0.12551585 0.082230322 0.35600001
-0.11988137 0.082230322 0.35600001
-0.11392596 0.081999339 0.35499999
-0.1086124 0.082230322 0.35600001
-0.10297792 0.082230322 0.35600001
-0.097070001 0.081999339 0.35499999
-0.091708951 0.082230322 0.35600001
-0.085832685 0.081999339 0.35499999
-0.080214031 0.081999339 0.35499999
-0.074385248 0.081768356 0.354
-0.068782419 0.081768356 0.354
-0.06317959 0.081768356 0.354
-0.057414118 0.081537366 0.35299999
-0.051680297 0.081306383 0.352
-0.046109125 0.081306383 0.352
-0.04053795 0.081306383 0.352
-0.034966778 0.081306383 0.352
-0.029395603 0.081306383 0.352
-0.023756746 0.0810754 0.35100001
-0.018097688 0.080613434 0.34900001
-0.010088019 0.064675532 0.28
-0.0051917704 0.0593629 0.257
-0.0011110575 0.058669947 0.25400001
0.0030350336 0.061210774 0.26499999
0.0078021246 0.066061437 0.28600001
0.014268534 0.07645572 0.331
0.020509224 0.080382451 0.34799999
0.02601709 0.080382451 0.34799999
0.031524956 0.080382451 0.34799999
0.036926404 0.080151461 0.347
0.042296197 0.079920478 0.34599999
0.047772408 0.079920478 0.34599999
0.053094722 0.079689495 0.345
0.058555104 0.079689495 0.345
0.063644387 0.079227529 0.34299999
0.069073111 0.079227529 0.34299999
0.074501842 0.079227529 0.34299999
0.079930574 0.079227529 0.34299999
0.085359298 0.079227529 0.34299999
0.090788029 0.079227529 0.34299999
0.095936246 0.078996547 0.34200001
0.10105281 0.078765564 0.34099999
0.10613771 0.078534573 0.34
0.11151896 0.078534573 0.34
0.11690021 0.078534573 0.34
0.1219218 0.07830359 0.33899999
0.1276627 0.078534573 0.34
0.13265264 0.07830359 0.33899999
0.13801806 0.07830359 0.33899999
0.14296052 0.078072608 0.338
0.14787133 0.077841625 0.33700001
0.15275048 0.077610642 0.336
0.15853886 0.077841625 0.33700001
0.16338636 0.077610642 0.336
0.16820219 0.077379659 0.33500001
0 0 0
0 0 0
0 0 0
0 0 0
0 0 0
0 0 0
-0 0 0
-0 0 0
-0 0 0
-0 0 0
-0 0 0
-0 0 0
-0 0 0
-0 0 0
-0 0 0
-0 0 0
-0 0 0
-0.17346685 0.089347929 0.36199999
-0.16773741 0.089347929 0.36199999
-0.16156043 0.089101113 0.361
-0.1554151 0.088854291 0.36000001
-0.1497173 0.088854291 0.36000001
-0.14361946 0.088607475 0.359
-0.1379375 0.088607475 0.359
-0.13225554 0.088607475 0.359
-0.12586842 0.088113837 0.35699999
-0.12021811 0.088113837 0.35699999
-0.1145678 0.088113837 0.35699999
-0.10891749 0.088113837 0.35699999
-0.10326719 0.088113837 0.35699999
-0.097616874 0.088113837 0.35699999
-0.091966562 0.088113837 0.35699999
-0.086074471 0.087867022 0.35600001
-0.080665946 0.088113837 0.35699999
-0.074595377 0.087620206 0.35499999
-0.068976723 0.087620206 0.35499999
-0.06317959 0.087373391 0.354
-0.057576764 0.087373391 0.354
-0.051973935 0.087373391 0.354
-0.046240117 0.087126568 0.35299999
-0.04053795 0.086879753 0.352
-0.035066113 0.087126568 0.35299999
-0.029562624 0.087373391 0.354
-0.023892112 0.087126568 0.35299999
-0.018253256 0.086879753 0.352
-0.010988735 0.075279333 0.30500001
-0.0052927774 0.064666182 0.26199999
-0.0011285545 0.063678913 0.25799999
0.0031037512 0.066887535 0.271
0.007965805 0.072070703 0.292
0.015346218 0.087867022 0.35600001
0.020509224 0.085892484 0.34799999
0.026091851 0.086139299 0.34900001
0.031524956 0.085892484 0.34799999
0.03703282 0.085892484 0.34799999
0.042418443 0.085645668 0.347
0.047910478 0.085645668 0.347
0.053094722 0.08515203 0.345
0.058555104 0.08515203 0.345
0.063829936 0.084905215 0.34400001
0.069274493 0.084905215 0.34400001
0.074501842 0.084658399 0.34299999
0.080163606 0.084905215 0.34400001
0.085608162 0.084905215 0.34400001
0.091052718 0.084905215 0.34400001
0.096216761 0.084658399 0.34299999
0.10134915 0.084411576 0.34200001
0.10676205 0.084411576 0.34200001
0.11184695 0.084164761 0.34099999
0.11690021 0.083917946 0.34
0.12228145 0.083917946 0.34
0.1276627 0.083917946 0.34
0.13265264 0.083671123 0.33899999
0.1384252 0.083917946 0.34
0.14338349 0.083671123 0.33899999
0.14831011 0.083424307 0.338
0.1532051 0.083177492 0.33700001
0.15853886 0.083177492 0.33700001
0.16387263 0.083177492 0.33700001
0 0 0
0 0 0
0 0 0
0 0 0
0 0 0
0 0 0
0 0 0
-0 0 0
-0 0 0
-0 0 0
-0 0 0
-0 0 0
-0 0 0
-0 0 0
-0 0 0
-0 0 0
-0 0 0
-0 0 0
-0 0 0
-0.16820078 0.095342278 0.36300001
-0.1624555 0.095342278 0.36300001
-0.15627852 0.095079631 0.36199999
-0.15054907 0.095079631 0.36199999
-0.14481962 0.095079631 0.36199999
-0.13832173 0.094554327 0.36000001
-0.13225554 0.09429168 0.359
-0.12657356 0.09429168 0.359
-0.1208916 0.09429168 0.359
-0.11488872 0.094029024 0.35800001
-0.10952768 0.09429168 0.359
-0.10355645 0.094029024 0.35800001
-0.09789031 0.094029024 0.35800001
-0.092224173 0.094029024 0.35800001
-0.086558037 0.094029024 0.35800001
-0.080665946 0.093766376 0.35699999
-0.075015634 0.093766376 0.35699999
-0.069365323 0.093766376 0.35699999
-0.06353654 0.093503729 0.35600001
-0.057739411 0.093241073 0.35499999
-0.052120756 0.093241073 0.35499999
-0.04637111 0.092978425 0.354
-0.040768281 0.092978425 0.354
-0.035165451 0.092978425 0.354
-0.029562624 0.092978425 0.354
-0.023959795 0.092978425 0.354
-0.018305112 0.09271577 0.35299999
-0.011961509 0.087200105 0.33199999
-0.0053937845 0.070127793 0.26699999
-0.0011460515 0.068814538 0.26199999
0.0031724691 0.072754301 0.27700001
0.0083204471 0.080108531 0.30500001
0.015216896 0.09271577 0.35299999
0.020627093 0.091927819 0.34999999
0.026091851 0.091665171 0.34900001
0.031615544 0.091665171 0.34900001
0.03703282 0.091402516 0.34799999
0.042418443 0.091139868 0.347
0.047910478 0.091139868 0.347
0.053248618 0.090877213 0.34599999
0.058555104 0.090614565 0.345
0.064015485 0.090614565 0.345
0.069274493 0.090351917 0.34400001
0.074936256 0.090614565 0.345
0.080396637 0.090614565 0.345
0.085857026 0.090614565 0.345
0.091052718 0.090351917 0.34400001
0.096216761 0.090089262 0.34299999
0.10134915 0.089826614 0.34200001
0.10676205 0.089826614 0.34200001
0.11217495 0.089826614 0.34200001
0.11724403 0.089563958 0.34099999
0.1226411 0.089563958 0.34099999
0.12803818 0.089563958 0.34099999
0.13343525 0.089563958 0.34099999
0.1384252 0.08930131 0.34
0.14338349 0.089038663 0.33899999
0.1487489 0.089038663 0.33899999
0.1536597 0.088776007 0.338
0.15900931 0.088776007 0.338
0 0 0
0 0 0
0 0 0
0 0 0
0 0 0
0 0 0
0 0 0
0 0 0
-0 0 0
-0 0 0
-0 0 0
-0 0 0
-0 0 0
-0 0 0
-0 0 0
-0 0 0
-0 0 0
-0 0 0
-0 0 0
-0 0 0
-0.16912749 0.10164679 0.36500001
-0.16335057 0.10164679 0.36500001
-0.15714194 0.1013683 0.36399999
-0.15096495 0.10108982 0.36300001
-0.14521968 0.10108982 0.36300001
-0.13909018 0.10081133 0.36199999
-0.13299233 0.10053285 0.361
-0.12727872 0.10053285 0.361
-0.12122835 0.10025436 0.36000001
-0.11553056 0.10025436 0.36000001
-0.10983276 0.10025436 0.36000001
-0.10413498 0.10025436 0.36000001
-0.098163746 0.099975877 0.359
-0.092481785 0.099975877 0.359
-0.086799815 0.099975877 0.359
-0.081117854 0.099975877 0.359
-0.075015634 0.099418908 0.35699999
-0.069365323 0.099418908 0.35699999
-0.06353654 0.099140428 0.35600001
-0.057902057 0.099140428 0.35600001
-0.052267574 0.099140428 0.35600001
-0.046502098 0.09886194 0.35499999
-0.040883444 0.09886194 0.35499999
-0.03526479 0.09886194 0.35499999
-0.029646134 0.09886194 0.35499999
-0.024027478 0.09886194 0.35499999
-0.018356966 0.09858346 0.354
-0.012285766 0.094963163 0.34099999
-0.0054745902 0.075469255 0.271
-0.0011679226 0.074355319 0.26699999
0.0032755455 0.07964652 0.28600001
0.0085932491 0.08772257 0.315
0.015130681 0.097748004 0.35100001
0.020686029 0.097748004 0.35100001
0.026166612 0.097469524 0.34999999
0.031706132 0.097469524 0.34999999
0.037139237 0.097191036 0.34900001
0.042540684 0.096912555 0.34799999
0.047910478 0.096634068 0.347
0.053248618 0.09635558 0.34599999
0.058555104 0.096077099 0.345
0.064015485 0.096077099 0.345
0.069475874 0.096077099 0.345
0.074936256 0.096077099 0.345
0.080396637 0.096077099 0.345
0.086105883 0.09635558 0.34599999
0.091052718 0.095798612 0.34400001
0.096216761 0.095520131 0.34299999
0.10164549 0.095520131 0.34299999
0.10676205 0.095241643 0.34200001
0.11217495 0.095241643 0.34200001
0.11758785 0.095241643 0.34200001
0.1226411 0.094963163 0.34099999
0.12841366 0.095241643 0.34200001
0.13382655 0.095241643 0.34200001
0.13883233 0.094963163 0.34099999
0.14380644 0.094684675 0.34
0.1487489 0.094406195 0.33899999
0.15411432 0.094406195 0.33899999
0.15947974 0.094406195 0.33899999
0 0 0
0 0 0
0 0 0
0 0 0
0 0 0
0 0 0
0 0 0
0 0 0
-0 0 0
-0 0 0
-0 0 0
-0 0 0
-0 0 0
-0 0 0
-0 0 0
-0 0 0
-0 0 0
-0 0 0
-0 0 0
-0 0 0
-0 0 0
-0.16379811 0.10772031 0.366
-0.15757364 0.10742599 0.36500001
-0.15179671 0.10742599 0.36500001
-0.14561974 0.10713167 0.36399999
-0.13985863 0.10713167 0.36399999
-0.13336073 0.10654303 0.36199999
-0.12763129 0.10654303 0.36199999
-0.1215651 0.10624871 0.361
-0.11585148 0.10624871 0.361
-0.11013786 0.10624871 0.361
-0.10442424 0.10624871 0.361
-0.098710619 0.10624871 0.361
-0.092739388 0.1059544 0.36000001
-0.087041602 0.1059544 0.36000001
-0.081343807 0.1059544 0.36000001
-0.073124483 0.10242259 0.34799999
-0.063147701 0.095653281 0.32499999
