# .PCD v0.7 - Point Cloud Data file format
VERSION 0.7
FIELDS x y z
SIZE 4 4 4
TYPE F F F
COUNT 1 1 1
WIDTH 1401
HEIGHT 1
VIEWPOINT 0 0 0 1 0 0 0
POINTS 1401
DATA ascii
-0.36160445 1.0720727 -0.23589374
-0.36334264 1.091845 -0.25993794
-0.36158884 1.1079526 -0.28253609
-0.36409414 1.1295732 -0.30825377
-0.39271349 1.1839331 -0.35171676
-0.38000512 1.1881796 -0.36930448
-0.3612037 1.1845554 -0.38245076
-0.34381121 1.1823899 -0.39615446
-0.32119608 1.1729821 -0.40540653
-0.049397811 0.82660526 -0.21340534
0.22214505 0.46734521 -0.004418999
0.22760382 0.46718907 -0.0094003081
0.23813415 0.45969892 -0.0096673518
0.24848321 0.45209867 -0.0096191913
0.25920454 0.4435674 -0.0087145865
0.26863772 0.43656799 -0.0085774213
0.27844307 0.42863759 -0.007583797
0.28806722 0.42059711 -0.006275028
0.29646367 0.41412523 -0.0058387667
0.30522478 0.40671772 -0.0045329183
0.31331158 0.40005779 -0.0035582483
0.32074681 0.39415929 -0.0029541999
0.32706004 0.38989359 -0.0034065247
0.33423847 0.38383916 -0.0023559928
0.51046598 0.070833243 0.2370434
0.51046598 0.070833243 0.2370434
0.51046598 0.070833243 0.2370434
0.51046598 0.070833243 0.2370434
0.51046598 0.070833243 0.2370434
0.51046598 0.070833243 0.2370434
0.51046598 0.070833243 0.2370434
-0.73790002 0.69729066 0.5738818
-0.74416578 0.71067834 0.56200433
-0.74816811 0.72314805 0.54922783
-0.75096357 0.7352047 0.53587031
0.51046598 0.070833243 0.2370434
0.51046598 0.070833243 0.2370434
0.51046598 0.070833243 0.2370434
0.51046598 0.070833243 0.2370434
0.51046598 0.070833243 0.2370434
0.51046598 0.070833243 0.2370434
0.51046598 0.070833243 0.2370434
0.51046598 0.070833243 0.2370434
0.51046598 0.070833243 0.2370434
-1.0906737 1.0607287 0.42215788
0.51046598 0.070833243 0.2370434
-0.7915349 0.90197903 0.35288128
-0.7443459 0.88478965 0.3315506
0.51046598 0.070833243 0.2370434
-0.68319213 0.87035006 0.29352731
-0.66691887 0.87220955 0.27585679
-0.65163398 0.87461513 0.25838628
-0.6434381 0.88188487 0.24109802
-0.63261026 0.88731438 0.22378732
-0.62523663 0.89523113 0.20641018
-0.5905478 0.88305831 0.19011649
-0.56474328 0.87695187 0.17408997
-0.54508525 0.87513608 0.15812431
-0.53058559 0.87706465 0.14201955
-0.51042265 0.8744092 0.12669429
-0.49697149 0.87684727 0.11089459
-0.4795616 0.87595856 0.095801808
-0.46070394 0.87365657 0.081228115
-0.44915354 0.87723267 0.065697208
-0.43921679 0.88212109 0.049936134
-0.43395516 0.89104742 0.033195414
-0.43169442 0.90273607 0.015600329
-0.43005934 0.91519099 -0.0024250117
-0.40188295 0.9036479 -0.013466842
-0.39647782 0.91266143 -0.030457009
-0.39543054 0.92590541 -0.048978262
-0.39275458 0.93784636 -0.067295618
-0.38994259 0.94986975 -0.085849285
-0.38914347 0.96410936 -0.10545745
-0.39028922 0.98060644 -0.12623824
-0.39401278 1.0001225 -0.14860873
-0.38773924 1.0096635 -0.16710907
0.18185125 0.42028844 0.081263706
0.21192965 0.39385381 0.088169284
0.20317541 0.40916872 0.076064661
0.19469304 0.42464876 0.063487284
-0.3513037 1.0535686 -0.259314
-0.36277437 1.0844265 -0.28946802
-0.36221343 1.1019602 -0.31321657
-0.36142591 1.1196312 -0.33735901
-0.38481146 1.1673231 -0.37867609
-0.38451251 1.18699 -0.4050054
-0.35831457 1.1742454 -0.41260675
0.51046598 0.070833243 0.2370434
0.20382243 0.4748944 -0.01159808
0.21594173 0.46620789 -0.011417881
0.22784954 0.45739293 -0.01086998
0.2384004 0.45004624 -0.010998785
0.24933521 0.44178659 -0.010277122
0.25951606 0.43421513 -0.009762466
0.26951563 0.42653367 -0.008932665
0.27879143 0.41955882 -0.0083623976
0.28736606 0.41330436 -0.0080911368
0.2968446 0.40530646 -0.0063552558
0.30510205 0.39885935 -0.0055324137
0.31320852 0.39232057 -0.0044469833
0.32116395 0.38569003 -0.0030988604
0.32847106 0.37981197 -0.0021416694
0.33466282 0.37554899 -0.0022813827
0.33978462 0.3729285 -0.0035967827
0.51046598 0.070833243 0.2370434
0.51046598 0.070833243 0.2370434
0.51046598 0.070833243 0.2370434
0.51046598 0.070833243 0.2370434
0.51046598 0.070833243 0.2370434
0.51046598 0.070833243 0.2370434
-0.74093121 0.67999065 0.56471282
-0.743155 0.69112808 0.55172026
-0.74828023 0.70390928 0.53917509
-0.75217915 0.71630007 0.52602994
0.51046598 0.070833243 0.2370434
0.51046598 0.070833243 0.2370434
0.51046598 0.070833243 0.2370434
0.51046598 0.070833243 0.2370434
0.51046598 0.070833243 0.2370434
0.51046598 0.070833243 0.2370434
0.51046598 0.070833243 0.2370434
0.51046598 0.070833243 0.2370434
0.51046598 0.070833243 0.2370434
0.51046598 0.070833243 0.2370434
0.51046598 0.070833243 0.2370434
-0.80676007 0.88863689 0.34352487
-0.81250179 0.90558475 0.32592088
-0.81888098 0.92328089 0.30789253
0.51046598 0.070833243 0.2370434
-0.71900797 0.88516557 0.2675643
-0.69709855 0.88371271 0.24939036
-0.6832971 0.88755327 0.23152126
-0.66955608 0.8913573 0.2137572
-0.66537887 0.90184093 0.19576459
-0.62683988 0.88778192 0.17932653
-0.60747403 0.88705498 0.16251017
-0.58743292 0.88560277 0.14605242
-0.56507188 0.88215363 0.13015841
-0.54706836 0.88173461 0.11417839
-0.52839726 0.88058567 0.098570101
-0.51151448 0.88062125 0.083006255
-0.49316049 0.87927967 0.067949541
-0.47417662 0.87718546 0.053330235
-0.46247002 0.880889 0.037571244
-0.44768521 0.88192111 0.022590179
-0.43764597 0.8868826 0.0066654999
-0.42532474 0.88982439 -0.0086298287
-0.39789897 0.87923354 -0.019536573
-0.39485773 0.89016277 -0.037086807
-0.39466816 0.90390122 -0.055808898
-0.39135483 0.91499543 -0.073831834
-0.38500884 0.92339063 -0.090998113
0.16175526 0.40853074 0.10160466
-0.38425511 0.95223016 -0.1306262
-0.39029604 0.97353733 -0.15384056
-0.38763091 0.98650867 -0.173802
0.51046598 0.070833243 0.2370434
0.21143512 0.38647914 0.085718513
0.20461519 0.39936641 0.074587487
0.20202753 0.40801236 0.065293014
0.19495535 0.42188168 0.053068012
-0.36390087 1.0610894 -0.29629999
-0.36345619 1.0783886 -0.32006371
-0.36151007 1.094329 -0.34337279
-0.35873789 1.1096357 -0.36658591
-0.35329515 1.1220233 -0.38831204
0.1748099 0.48684573 -0.016123667
0.19046992 0.47478598 -0.01423423
0.20404406 0.46486527 -0.013315603
0.21678442 0.4555735 -0.012479842
0.22871366 0.44692439 -0.011766329
0.23927747 0.43971658 -0.011743799
0.24966004 0.43239877 -0.011406109
0.25986141 0.42497081 -0.010753244
0.26932719 0.41823143 -0.010353968
0.2786268 0.41139117 -0.0096657723
0.28776032 0.40444997 -0.0086886883
0.29672766 0.39740792 -0.0074227303
0.30500475 0.39108193 -0.0064890981
0.3131308 0.38466421 -0.0052928627
0.32110581 0.37815478 -0.0038339496
0.32742536 0.37404579 -0.004094407
0.33462703 0.36820194 -0.0028234124
0.33974731 0.36563516 -0.0040637255
0.51046598 0.070833243 0.2370434
0.51046598 0.070833243 0.2370434
0.51046598 0.070833243 0.2370434
0.51046598 0.070833243 0.2370434
0.51046598 0.070833243 0.2370434
-0.73834562 0.65040445 0.56749529
-0.74081981 0.66126972 0.55477875
-0.74209356 0.67173976 0.54152185
-0.74835002 0.68480533 0.52919382
0.51046598 0.070833243 0.2370434
-1.6858559 1.1779675 0.69736528
0.51046598 0.070833243 0.2370434
0.51046598 0.070833243 0.2370434
0.51046598 0.070833243 0.2370434
0.51046598 0.070833243 0.2370434
0.51046598 0.070833243 0.2370434
0.51046598 0.070833243 0.2370434
0.51046598 0.070833243 0.2370434
0.51046598 0.070833243 0.2370434
0.51046598 0.070833243 0.2370434
0.51046598 0.070833243 0.2370434
0.51046598 0.070833243 0.2370434
0.51046598 0.070833243 0.2370434
-0.83419597 0.90926164 0.29786652
-0.81583256 0.91141903 0.27831116
-0.78052056 0.90250683 0.25867981
-0.74027133 0.88984662 0.239746
-0.72525251 0.89334595 0.22136511
-0.70943338 0.8962068 0.20313995
-0.69110024 0.89722127 0.18518472
-0.67290336 0.89815325 0.16746584
-0.64545828 0.89233369 0.15068442
-0.62338841 0.88999581 0.13396709
-0.60404408 0.88937593 0.11734742
-0.58486575 0.88865507 0.1010167
-0.56256223 0.88533491 0.085439868
-0.54456174 0.88502318 0.069610067
-0.52267343 0.88145071 0.054755472
-0.50581288 0.88157094 0.03936094
-0.48908848 0.88160866 0.024202753
-0.47249979 0.88156378 0.0092809759
-0.45837992 0.88339281 -0.0059896354
-0.40815991 0.85430086 -0.01131806
-0.39762595 0.85844958 -0.026541535
-0.39467126 0.86923873 -0.044056982
-0.39383793 0.88211268 -0.062525257
-0.39135879 0.89373755 -0.080760986
-0.389476 0.90612441 -0.099506922
0.51046598 0.070833243 0.2370434
0.17268725 0.39526904 0.095694318
0.51046598 0.070833243 0.2370434
-0.38043445 0.95658964 -0.17711709
0.51046598 0.070833243 0.2370434
0.20958361 0.38057274 0.082591027
0.20541787 0.39041072 0.072815932
0.20880853 0.39246988 0.066919796
0.20356339 0.4039011 0.055927321
0.51046598 0.070833243 0.2370434
-0.36528885 1.0557358 -0.32722914
-0.36087644 1.0685346 -0.34882665
-0.33286709 1.054063 -0.35421199
0.16461954 0.48144209 -0.015598491
0.17869169 0.47199854 -0.015314177
0.19191077 0.46316126 -0.015093535
0.20550722 0.45342878 -0.013981879
0.21766937 0.44507396 -0.013470426
0.22903126 0.43735752 -0.013114616
0.24019682 0.4295218 -0.012417391
0.25059235 0.42234284 -0.011928365
0.26080668 0.41505378 -0.011124179
0.27028117 0.40843982 -0.010580689
0.27903855 0.40251467 -0.010337278
0.28818834 0.39570352 -0.0092291385
0.29717198 0.38879141 -0.0078321099
0.30493277 0.38338542 -0.0074029416
0.31307846 0.37708879 -0.0060958862
0.32107311 0.37070045 -0.004526183
0.32841101 0.36503762 -0.0033616722
0.33461669 0.36093587 -0.0033226013
0.34071663 0.35676989 -0.0030997097
0.3457447 0.35420173 -0.0041073412
0.51046598 0.070833243 0.2370434
0.51046598 0.070833243 0.2370434
0.51046598 0.070833243 0.2370434
-0.7396279 0.6232723 0.57122087
-0.74126863 0.63341027 0.5584572
-0.74380445 0.64411807 0.54568833
-0.74721265 0.65540951 0.53287482
-0.76281154 0.67265868 0.52252007
0.51046598 0.070833243 0.2370434
0.51046598 0.070833243 0.2370434
0.51046598 0.070833243 0.2370434
0.51046598 0.070833243 0.2370434
0.51046598 0.070833243 0.2370434
0.51046598 0.070833243 0.2370434
0.51046598 0.070833243 0.2370434
0.51046598 0.070833243 0.2370434
0.51046598 0.070833243 0.2370434
0.51046598 0.070833243 0.2370434
0.51046598 0.070833243 0.2370434
0.51046598 0.070833243 0.2370434
0.51046598 0.070833243 0.2370434
0.51046598 0.070833243 0.2370434
0.51046598 0.070833243 0.2370434
0.51046598 0.070833243 0.2370434
-0.82631016 0.90800077 0.24876742
-0.79185456 0.89997655 0.22945493
-0.7657792 0.89688373 0.21066025
-0.75668001 0.90463674 0.19171385
-0.73533678 0.90423715 0.17333959
-0.70552629 0.89784575 0.15585782
-0.67776269 0.89243805 0.13881209
-0.66134775 0.89461279 0.12119965
-0.64335442 0.89551938 0.10396522
-0.62132353 0.89331061 0.087518588
-0.60033143 0.89158475 0.071316183
-0.58199406 0.89158666 0.055045664
-0.56137186 0.88963598 0.039486721
-0.54094601 0.88756609 0.024269223
-0.52310711 0.88726532 0.0088653676
-0.50384057 0.88560468 -0.0058977343
-0.47224665 0.87361574 -0.017110627
-0.41088024 0.83628368 -0.019190591
-0.39882708 0.83914983 -0.033903461
-0.3936666 0.84785104 -0.050685588
-0.39143705 0.85922611 -0.068617925
-0.39204761 0.87332994 -0.087858029
-0.39025235 0.88555449 -0.1065966
-0.38830611 0.89787084 -0.12559777
0.51046598 0.070833243 0.2370434
0.18067747 0.38495836 0.089029551
0.18840396 0.38297006 0.084963769
0.19324493 0.38368315 0.079668984
0.20565858 0.37674737 0.078384221
0.20830521 0.37946811 0.072220236
0.20961481 0.38360372 0.065257929
0.21096969 0.3877669 0.058216803
0.51046598 0.070833243 0.2370434
-0.36053663 1.0260788 -0.33005464
0.13263571 0.49273494 -0.019515119
0.15237284 0.47799894 -0.016356543
0.16733217 0.46815541 -0.01582142
0.1801652 0.46036085 -0.016273648
0.19401805 0.45095879 -0.015376046
0.20702113 0.44215414 -0.014562458
0.21859656 0.43470925 -0.014389575
0.22997569 0.42714518 -0.013875291
0.24057302 0.42021978 -0.013563201
0.25098905 0.41318426 -0.012935951
0.26122388 0.4060387 -0.011993557
0.2707147 0.3995547 -0.011318997
0.27948409 0.39374608 -0.010951668
0.28865021 0.3870649 -0.0097124726
0.29710996 0.3810682 -0.0088067502
0.30541876 0.37497982 -0.0076383948
0.31305149 0.36959425 -0.006856069
0.32106572 0.36332697 -0.0051755905
0.32790908 0.35857555 -0.0045823455
0.33513403 0.35294235 -0.0030909181
0.34024364 0.35047829 -0.0041678995
0.34625235 0.34633335 -0.0036849231
0.51046598 0.070833243 0.2370434
0.51046598 0.070833243 0.2370434
0.51046598 0.070833243 0.2370434
-0.73821503 0.60465425 0.56115019
-0.74311686 0.61600995 0.5491842
-0.74362123 0.62562639 0.53587568
-0.74816072 0.63720226 0.52327931
0.51046598 0.070833243 0.2370434
0.51046598 0.070833243 0.2370434
0.51046598 0.070833243 0.2370434
0.51046598 0.070833243 0.2370434
0.51046598 0.070833243 0.2370434
0.51046598 0.070833243 0.2370434
0.51046598 0.070833243 0.2370434
0.51046598 0.070833243 0.2370434
0.51046598 0.070833243 0.2370434
0.51046598 0.070833243 0.2370434
0.51046598 0.070833243 0.2370434
0.51046598 0.070833243 0.2370434
0.51046598 0.070833243 0.2370434
0.51046598 0.070833243 0.2370434
0.51046598 0.070833243 0.2370434
0.51046598 0.070833243 0.2370434
0.51046598 0.070833243 0.2370434
0.51046598 0.070833243 0.2370434
0.51046598 0.070833243 0.2370434
-0.84408909 0.92293018 0.1983279
-0.81316596 0.91745436 0.17923044
-0.77731538 0.90835607 0.16102131
-0.74275684 0.89957583 0.14348269
-0.72152901 0.89923728 0.12548293
-0.70560646 0.90229207 0.10725147
-0.67623144 0.89587623 0.090846092
-0.65809423 0.89696842 0.073492095
-0.6417557 0.89917326 0.056113392
-0.61728489 0.89529169 0.040355325
-0.60123318 0.89732224 0.023475647
-0.57639182 0.89256322 0.0086491182
-0.55422568 0.88948715 -0.0062538572
-0.52593756 0.88130873 -0.019193318
-0.45083565 0.83540958 -0.018968839
-0.43692926 0.83723986 -0.0336941
-0.42311344 0.83901513 -0.04826181
-0.40480804 0.83690184 -0.061179593
-0.39499786 0.84175706 -0.07666263
-0.39193726 0.85243589 -0.094594344
-0.39023715 0.86449361 -0.11331239
-0.38911924 0.87730026 -0.13259432
-0.3871094 0.88954598 -0.15185076
0.51046598 0.070833243 0.2370434
0.18363434 0.37950507 0.080345154
0.19273171 0.37620977 0.077134818
0.20240363 0.37216088 0.074501492
0.20918819 0.37076864 0.070584372
0.21181549 0.3734667 0.064439505
0.21580337 0.37478608 0.059080996
0.20979826 0.38657439 0.047457173
0.136925 0.47021019 -0.0086565167
0.14056423 0.47352281 -0.016561031
0.15514174 0.46473548 -0.016691618
0.16884255 0.45651829 -0.016873963
0.18168941 0.44888499 -0.017147474
0.19556457 0.43967119 -0.016056821
0.20797345 0.43177187 -0.015568659
0.21956608 0.42447942 -0.015237346
0.23096237 0.41706771 -0.014564574
0.24216232 0.40953678 -0.013550401
0.25200167 0.40338457 -0.013322547
0.26224947 0.39637789 -0.012228802
0.27061495 0.39153564 -0.012590349
0.28052294 0.38432258 -0.010905683
0.28914586 0.37853414 -0.010138646
0.29707336 0.3734259 -0.0097385645
0.30486497 0.36823505 -0.0091020763
0.31304985 0.36218065 -0.0075734258
0.32108369 0.35603449 -0.0057821423
0.32793826 0.35137713 -0.0050923675
0.33517858 0.34585154 -0.0034972876
0.34028667 0.34344116 -0.0044991672
0.34630233 0.33937684 -0.0039267987
0.51046598 0.070833243 0.2370434
0.51046598 0.070833243 0.2370434
0.51046598 0.070833243 0.2370434
-0.72819412 0.58266193 0.5490101
-0.73219454 0.59333163 0.53687876
-0.74866843 0.60952532 0.52735007
-0.74802792 0.61864716 0.51351076
0.51046598 0.070833243 0.2370434
0.51046598 0.070833243 0.2370434
0.51046598 0.070833243 0.2370434
0.51046598 0.070833243 0.2370434
0.51046598 0.070833243 0.2370434
0.51046598 0.070833243 0.2370434
0.51046598 0.070833243 0.2370434
0.51046598 0.070833243 0.2370434
0.51046598 0.070833243 0.2370434
0.51046598 0.070833243 0.2370434
0.51046598 0.070833243 0.2370434
0.51046598 0.070833243 0.2370434
0.51046598 0.070833243 0.2370434
0.51046598 0.070833243 0.2370434
0.51046598 0.070833243 0.2370434
0.51046598 0.070833243 0.2370434
0.51046598 0.070833243 0.2370434
-1.1048639 1.0252426 0.22575921
0.51046598 0.070833243 0.2370434
-0.88366097 0.92270309 0.18627442
-0.84081608 0.91051692 0.16744305
-0.81611723 0.90914261 0.14835313
-0.79339147 0.9087534 0.1295131
-0.7656675 0.90484977 0.11152543
-0.74166328 0.9030537 0.093643561
-0.72043771 0.90284497 0.075821415
-0.69855011 0.90194654 0.058439001
-0.67268115 0.89800805 0.042086422
-0.65370804 0.89861453 0.025000066
-0.63324517 0.89794254 0.0085042194
-0.59426665 0.88340831 -0.0036036819
-0.576756 0.88421828 -0.019737806
-0.49635506 0.83698529 -0.019571654
-0.47892252 0.83665615 -0.033979155
-0.46320644 0.83746785 -0.048583221
-0.4491615 0.83944786 -0.063462667
-0.43443933 0.84074736 -0.077928625
-0.41830313 0.84072268 -0.091672778
-0.4015502 0.83998078 -0.10489842
-0.3923977 0.84553915 -0.12081405
-0.38914421 0.85624778 -0.13919681
-0.38941923 0.87027168 -0.1593973
-0.37866342 0.87462038 -0.17491938
0.51046598 0.070833243 0.2370434
0.20637894 0.35554779 0.081847623
0.21102539 0.35618639 0.07694909
0.21494953 0.35747793 0.071715906
0.21748954 0.3601121 0.065708354
0.21665978 0.3661578 0.057607301
0.21859832 0.36951828 0.051054984
0.1887973 0.40599996 0.02334404
0.14666511 0.45682487 -0.014736943
0.1566847 0.45308539 -0.017844409
0.1710428 0.4443396 -0.01736176
0.18389599 0.43686301 -0.017443366
0.19716185 0.42854542 -0.016651906
0.20958456 0.42080739 -0.015985027
0.22118685 0.41366267 -0.015482053
0.23138988 0.40785143 -0.015727207
0.24202068 0.40120837 -0.015125558
0.25247023 0.39445525 -0.014208764
0.26215976 0.38833213 -0.013560966
0.27168313 0.38210815 -0.012624279
0.28104037 0.37578323 -0.011398673
0.28911921 0.37086514 -0.011131287
0.29706207 0.36586452 -0.010627523
0.30541009 0.36001828 -0.0092375726
0.3136071 0.35408035 -0.0075849742
0.32112709 0.34882289 -0.0063458681
0.32799274 0.34425962 -0.0055595785
0.33524847 0.33884165 -0.0038608313
0.34085834 0.33569896 -0.0040721595
0.34637767 0.33250123 -0.0041258782
0.51046598 0.070833243 0.2370434
0.51046598 0.070833243 0.2370434
0.51046598 0.070833243 0.2370434
-0.73738462 0.56876034 0.5417906
-0.73820674 0.57798731 0.52877367
-0.73042268 0.58379537 0.51363248
0.51046598 0.070833243 0.2370434
0.51046598 0.070833243 0.2370434
0.51046598 0.070833243 0.2370434
0.51046598 0.070833243 0.2370434
0.51046598 0.070833243 0.2370434
0.51046598 0.070833243 0.2370434
0.51046598 0.070833243 0.2370434
0.51046598 0.070833243 0.2370434
0.51046598 0.070833243 0.2370434
0.51046598 0.070833243 0.2370434
0.51046598 0.070833243 0.2370434
0.51046598 0.070833243 0.2370434
0.51046598 0.070833243 0.2370434
0.51046598 0.070833243 0.2370434
0.51046598 0.070833243 0.2370434
0.51046598 0.070833243 0.2370434
0.51046598 0.070833243 0.2370434
0.51046598 0.070833243 0.2370434
0.51046598 0.070833243 0.2370434
0.51046598 0.070833243 0.2370434
0.51046598 0.070833243 0.2370434
-0.87670285 0.90777934 0.15483688
-0.85611695 0.90947443 0.1350905
-0.8365593 0.91162568 0.11552769
-0.81191778 0.91038042 0.096754909
-0.78664035 0.90844053 0.078481585
-0.75818515 0.90410793 0.061102673
-0.73257387 0.90129018 0.043853953
-0.71141833 0.90116984 0.026327595
-0.69876635 0.90669209 0.0075368881
-0.6787225 0.90697736 -0.0096615553
-0.64331913 0.89605743 -0.023070931
-0.54684126 0.84009659 -0.020693976
-0.52655262 0.83836919 -0.035107721
-0.50804919 0.8377189 -0.049627259
-0.49443346 0.84058434 -0.065278374
-0.47699639 0.84036714 -0.079548821
-0.46434128 0.84372997 -0.095134668
-0.44563249 0.84212369 -0.10840636
-0.43088838 0.84351301 -0.1228092
-0.4147518 0.84358674 -0.13642342
-0.39726782 0.84231734 -0.14917019
-0.37921605 0.84031212 -0.16129942
0.19152832 0.35156041 0.086994343
0.19124867 0.356794 0.079454884
0.19317877 0.36012751 0.072888285
0.19654676 0.36217293 0.067031547
0.20339626 0.36092925 0.063146427
0.20672649 0.36295173 0.057355352
0.20665076 0.36830914 0.049461327
0.1978931 0.38244283 0.035797641
0.13278908 0.45421511 -0.016321108
0.14629045 0.44728503 -0.017327033
0.15958036 0.4402265 -0.017965257
0.17265889 0.43303958 -0.018235803
0.18552592 0.42572424 -0.018138662
0.19880983 0.41758141 -0.017161325
0.21062562 0.41070837 -0.016841307
0.22224513 0.40371603 -0.016179875
0.23245689 0.39803022 -0.016280815
0.24310066 0.39152604 -0.01552783
0.2529726 0.3856338 -0.015037864
0.26267838 0.37964067 -0.014258996
0.27164263 0.37427783 -0.013795629
0.28159165 0.36735171 -0.011834562
0.2891179 0.36327705 -0.012081072
0.29762903 0.35763904 -0.010829821
0.30544382 0.35265887 -0.0099729151
0.31312266 0.34759617 -0.0088796169
0.32066563 0.34245089 -0.0075499564
0.32807267 0.33722305 -0.0059839338
0.33482867 0.33268055 -0.0048909932
0.34095636 0.32883713 -0.0043105781
0.34747827 0.3241525 -0.0028105974
0.51046598 0.070833243 0.2370434
-0.73032975 0.53147483 0.55641413
0.51046598 0.070833243 0.2370434
-0.74876535 0.55558103 0.53502417
-0.74101567 0.56135726 0.51992834
-0.73750293 0.56883943 0.50572169
-0.74341369 0.58022642 0.4933252
-0.73863399 0.58740819 0.47853509
0.51046598 0.070833243 0.2370434
0.51046598 0.070833243 0.2370434
0.51046598 0.070833243 0.2370434
0.51046598 0.070833243 0.2370434
0.51046598 0.070833243 0.2370434
0.51046598 0.070833243 0.2370434
0.51046598 0.070833243 0.2370434
0.51046598 0.070833243 0.2370434
0.51046598 0.070833243 0.2370434
0.51046598 0.070833243 0.2370434
0.51046598 0.070833243 0.2370434
0.51046598 0.070833243 0.2370434
0.51046598 0.070833243 0.2370434
0.51046598 0.070833243 0.2370434
0.51046598 0.070833243 0.2370434
0.51046598 0.070833243 0.2370434
0.51046598 0.070833243 0.2370434
0.51046598 0.070833243 0.2370434
0.51046598 0.070833243 0.2370434
0.51046598 0.070833243 0.2370434
-0.92044926 0.92308277 0.11930965
-0.87479174 0.91015971 0.10146023
-0.85068917 0.90982068 0.082222417
-0.83199799 0.91261375 0.062676892
-0.80655491 0.91094935 0.044347107
-0.77539229 0.9052698 0.027409315
-0.75470531 0.9060657 0.0092520267
-0.73753035 0.90900785 -0.0092767105
-0.70554066 0.9016912 -0.024413608
-0.60986292 0.84961104 -0.023967989
-0.57514846 0.83860034 -0.035744973
-0.55539966 0.83775675 -0.050651234
-0.54062426 0.84031135 -0.066626795
-0.52277493 0.84045362 -0.081469297
-0.51212895 0.84584928 -0.098362274
-0.49218556 0.84405404 -0.11198725
-0.47628099 0.84515488 -0.12668715
-0.45745343 0.84375173 -0.13999131
-0.44031388 0.84346294 -0.15359941
-0.42183375 0.84184897 -0.16629955
0.17011513 0.35729802 0.082236797
0.17651933 0.35690826 0.077578843
0.17924722 0.3596347 0.071215585
0.18055895 0.36364061 0.064075656
0.19253719 0.35807785 0.062681936
0.20503476 0.35176075 0.062004842
0.20971319 0.35246247 0.057108618
0.21299058 0.35445285 0.051409461
0.20813346 0.36434028 0.040419996
0.14715034 0.43000233 -0.0090199336
0.14925495 0.43448982 -0.017538682
0.16254365 0.42758337 -0.017971903
0.17497326 0.42122495 -0.018530808
0.18720651 0.41474736 -0.018748298
0.19987598 0.40746486 -0.018104702
0.21108396 0.40143436 -0.018158987
0.22334567 0.39390427 -0.016806267
0.23356619 0.38834381 -0.016763031
0.24362057 0.38268244 -0.016430885
0.25350878 0.37692022 -0.015809834
0.26323089 0.37105706 -0.01489988
0.27220714 0.36581078 -0.014312625
0.28103238 0.36047271 -0.013462692
0.28914198 0.35576984 -0.012988001
0.29767269 0.35025296 -0.01162596
0.30550289 0.34538037 -0.010665372
0.31265521 0.3411659 -0.010145664
0.32075548 0.33538762 -0.0080351233
0.32765105 0.3310172 -0.0070689172
0.33494508 0.32581902 -0.0051759928
0.34107971 0.32205623 -0.0045062155
0.3471086 0.31822926 -0.0036525875
0.51046598 0.070833243 0.2370434
-0.73732245 0.51695406 0.54885834
-0.74072516 0.52653503 0.53679985
-0.75694972 0.54103529 0.52742815
0.51046598 0.070833243 0.2370434
-0.73606217 0.55054379 0.49600855
-0.74101782 0.5612992 0.48338237
-0.75840265 0.57721245 0.47276014
-0.74407256 0.580621 0.45601171
-0.76196587 0.59728438 0.44463944
0.51046598 0.070833243 0.2370434
0.51046598 0.070833243 0.2370434
0.51046598 0.070833243 0.2370434
0.51046598 0.070833243 0.2370434
0.51046598 0.070833243 0.2370434
0.51046598 0.070833243 0.2370434
0.51046598 0.070833243 0.2370434
-0.98961329 0.78621662 0.33555681
-0.98770475 0.79796416 0.31589654
-0.98852962 0.81122828 0.29608729
-0.99965179 0.82988602 0.27620882
0.51046598 0.070833243 0.2370434
0.51046598 0.070833243 0.2370434
0.51046598 0.070833243 0.2370434
-0.96938652 0.8683843 0.19253089
0.51046598 0.070833243 0.2370434
0.51046598 0.070833243 0.2370434
0.51046598 0.070833243 0.2370434
0.51046598 0.070833243 0.2370434
0.51046598 0.070833243 0.2370434
-0.90031457 0.91456741 0.065882713
-0.86641443 0.90868402 0.047785863
-0.843252 0.90898561 0.028751537
-0.82370901 0.91132462 0.0094747841
-0.80006081 0.91086245 -0.0087701231
-0.76989859 0.90588552 -0.025269464
-0.67924964 0.86034644 -0.027659252
-0.63379174 0.84348184 -0.038074449
-0.61759889 0.84590381 -0.054793548
-0.59583861 0.84429508 -0.069755509
-0.57669848 0.84427166 -0.085063443
-0.56249672 0.84760225 -0.10158867
-0.5404923 0.84508288 -0.115341
-0.520275 0.84359598 -0.12925394
-0.50489026 0.84552729 -0.14456798
-0.48502028 0.84382939 -0.15787686
-0.4668619 0.84320974 -0.17147768
-0.44886971 0.84248924 -0.18478966
0.51046598 0.070833243 0.2370434
0.16062321 0.36238316 0.067550205
0.17003703 0.35962942 0.064253196
0.19588685 0.34250394 0.069960147
0.20488539 0.33949795 0.067385375
0.21164881 0.3383112 0.063794903
0.21554784 0.33962026 0.058648787
0.21805254 0.34220022 0.052659221
0.21852598 0.34672314 0.045299381
0.21231431 0.35777465 0.033223167
0.15962413 0.41471875 -0.012419187
0.16425577 0.41647267 -0.018839039
0.17734689 0.40959913 -0.018725812
0.18893784 0.40393224 -0.019272238
0.20098439 0.39748317 -0.018976673
0.21283463 0.39091486 -0.018339694
0.22386679 0.38490856 -0.01791434
0.23471771 0.37879226 -0.017173834
0.24538741 0.37256587 -0.016118154
0.25407881 0.36831453 -0.016524673
0.26381719 0.36258137 -0.015483677
0.27280551 0.35745159 -0.01477246
0.28164279 0.35223004 -0.013798624
0.28976023 0.34763017 -0.013207138
0.29774177 0.34294778 -0.012379274
0.30558732 0.33818278 -0.011315033
0.313297 0.33333531 -0.01001443
0.32033211 0.32913697 -0.009174943
0.32777742 0.32412896 -0.0074147284
0.33456334 0.31977928 -0.0061419159
0.3412284 0.31535622 -0.0046589822
0.34675583 0.31235999 -0.0044660121
-0.73407668 0.49079293 0.551467
-0.73882377 0.50048506 0.53993845
-0.74010736 0.50913697 0.52733284
-0.74668777 0.51981163 0.5156951
-0.89440733 0.58205062 0.53351933
0.51046598 0.070833243 0.2370434
-0.82261145 0.57430398 0.48945355
-0.73603529 0.55038333 0.45925274
-0.75019825 0.56483662 0.44761127
-0.74840999 0.57325804 0.43296134
-0.75065088 0.58342439 0.41872323
-0.75477803 0.59454119 0.40446776
0.51046598 0.070833243 0.2370434
0.51046598 0.070833243 0.2370434
0.51046598 0.070833243 0.2370434
0.51046598 0.070833243 0.2370434
-0.99683315 0.75353503 0.34398812
-1.0039531 0.76912183 0.32504514
-0.99618649 0.77803016 0.30494529
-1.0028458 0.79389668 0.28520128
-1.0015525 0.80620921 0.2648176
-0.99629056 0.81674033 0.24412699
-1.0116706 0.83778989 0.22306201
-0.98919165 0.83991438 0.20210718
-0.97987038 0.84871894 0.18095236
-0.97878772 0.86195159 0.15928608
-1.0103874 0.89306158 0.13510188
0.51046598 0.070833243 0.2370434
0.51046598 0.070833243 0.2370434
0.51046598 0.070833243 0.2370434
0.51046598 0.070833243 0.2370434
0.51046598 0.070833243 0.2370434
0.51046598 0.070833243 0.2370434
-0.86125982 0.90922451 -0.0071691275
-0.82534605 0.90169311 -0.023459375
-0.74929941 0.86823404 -0.030404247
-0.69868392 0.8497203 -0.040935792
-0.67533231 0.84818292 -0.056813426
-0.65714073 0.84979934 -0.073609672
-0.63256758 0.84690803 -0.088314369
-0.60986537 0.84497631 -0.10306265
-0.59378666 0.84740549 -0.11948232
-0.57226908 0.84580213 -0.13381901
-0.55174762 0.84464186 -0.14807248
-0.53219944 0.84393847 -0.16228209
-0.51437128 0.84428626 -0.17679793
-0.49212301 0.8410309 -0.18910818
-0.47464216 0.84116769 -0.20301998
0.51046598 0.070833243 0.2370434
0.018903967 0.46917811 -0.0044969097
0.20025088 0.32676005 0.077470914
0.205625 0.32688001 0.073071525
0.21023726 0.32758519 0.068348296
0.21481937 0.32827204 0.063677609
0.2186698 0.32956254 0.058630556
0.21972959 0.33334994 0.051841743
0.2180894 0.33968937 0.043153577
0.21723369 0.34545726 0.034749836
0.21579739 0.35192049 0.025707118
0.17398259 0.39778534 -0.013686121
0.17912351 0.39881158 -0.01932855
0.19071992 0.39327899 -0.019710489
0.20277613 0.38697767 -0.019243315
0.21400249 0.38122034 -0.018981777
0.22504765 0.37535301 -0.01840508
0.23529318 0.37004793 -0.018086553
0.24476179 0.36531895 -0.018065602
0.25528583 0.35913515 -0.016582802
0.26443732 0.35421354 -0.016010299
0.27343768 0.34920025 -0.015175179
0.28170645 0.34479052 -0.014716402
0.28983927 0.3402983 -0.014021248
0.29783618 0.33572346 -0.013089716
0.30569711 0.33106613 -0.011921823
0.31287175 0.3270399 -0.011209071
0.32046846 0.32222202 -0.0095815659
0.32792917 0.3173216 -0.0077176839
0.3341985 0.31379345 -0.0070792586
0.34088227 0.30946916 -0.0055129379
0.34693259 0.30580804 -0.0044936985
-0.73547924 0.47458035 0.54263616
-0.7358762 0.48263538 0.53002155
-0.74274242 0.49298376 0.51867765
0.51046598 0.070833243 0.2370434
0.51046598 0.070833243 0.2370434
0.51046598 0.070833243 0.2370434
0.51046598 0.070833243 0.2370434
0.51046598 0.070833243 0.2370434
0.51046598 0.070833243 0.2370434
-0.75665712 0.55816102 0.42479336
-0.75477004 0.56656611 0.40987018
-0.75277722 0.57503533 0.39476314
-0.76295286 0.58855891 0.38085845
-0.75355113 0.59426862 0.36450946
0.51046598 0.070833243 0.2370434
0.51046598 0.070833243 0.2370434
-1.0251174 0.74252272 0.3344847
-1.0183604 0.75181127 0.31441924
-0.9997977 0.7558254 0.29378179
0.51046598 0.070833243 0.2370434
0.51046598 0.070833243 0.2370434
-1.0049003 0.79628098 0.23280416
-0.99765253 0.80586767 0.21188512
-1.0006666 0.82062936 0.19051653
-0.99411678 0.83082914 0.16914833
-1.0013465 0.84821582 0.14679462
-0.98991668 0.8561942 0.12525596
-0.9948439 0.87290514 0.10222474
-1.012112 0.89663941 0.077370167
0.51046598 0.070833243 0.2370434
0.51046598 0.070833243 0.2370434
0.51046598 0.070833243 0.2370434
0.51046598 0.070833243 0.2370434
0.51046598 0.070833243 0.2370434
-0.79855907 0.86040938 -0.027886346
-0.75730038 0.84917063 -0.041423544
-0.74265951 0.85391402 -0.060230576
-0.72224081 0.85490733 -0.077443153
-0.69372344 0.85044885 -0.092107698
-0.67371249 0.85119438 -0.10861112
-0.64818794 0.84802932 -0.12306042
-0.63016999 0.8496387 -0.13942476
-0.60671377 0.84729153 -0.15360366
-0.5819217 0.84368169 -0.16677921
-0.56130755 0.84271955 -0.18100551
-0.54243684 0.84277266 -0.195526
-0.52832884 0.84615552 -0.21174347
-0.033393793 0.48408172 -0.0096730627
-0.026477382 0.48620802 -0.01837403
0.012375798 0.46313828 -0.011097051
0.20287374 0.31750175 0.076744325
0.20894356 0.31703991 0.072841763
0.2127907 0.31833926 0.067815013
0.21804911 0.31842172 0.063660264
0.22114526 0.32030204 0.058276273
0.22144896 0.32463452 0.051095672
0.21766976 0.33270949 0.041036338
0.21472456 0.34025398 0.031189784
0.22002074 0.34035936 0.026969381
0.21992843 0.34548831 0.018814377
0.1835923 0.3856419 -0.017786361
0.19255272 0.38278753 -0.020063035
0.20332806 0.37792435 -0.020506412
0.21521266 0.37166074 -0.019552439
0.22564062 0.3665866 -0.019391745
0.23590244 0.36141151 -0.018942162
0.24599814 0.35613558 -0.018203668
0.25592771 0.3507587 -0.01717627
0.26449129 0.34662628 -0.017099693
0.2741037 0.34105679 -0.015520766
0.28179544 0.33743197 -0.015591338
0.29052091 0.33236089 -0.01413326
0.29852569 0.32788911 -0.013084963
0.30583233 0.32403037 -0.012485772
0.31357273 0.31939808 -0.010977849
0.32063016 0.31538796 -0.0099453479
0.32756677 0.31130454 -0.0087027401
0.33438253 0.30714768 -0.0072499961
0.34055308 0.30363601 -0.0063383579
0.34713474 0.299337 -0.0044785291
-0.73350346 0.45740682 0.53305036
-0.73953015 0.46708596 0.52172148
-0.74315524 0.47617137 0.50957179
0.51046598 0.070833243 0.2370434
0.51046598 0.070833243 0.2370434
0.51046598 0.070833243 0.2370434
0.51046598 0.070833243 0.2370434
0.51046598 0.070833243 0.2370434
-0.83859754 0.56083584 0.44235247
0.51046598 0.070833243 0.2370434
0.51046598 0.070833243 0.2370434
-0.76727134 0.56208277 0.3871026
-0.76718867 0.57136786 0.37186033
-0.76289201 0.57910764 0.35600072
-0.76863933 0.59100872 0.34083086
-0.74603701 0.59139603 0.32333568
0.51046598 0.070833243 0.2370434
0.51046598 0.070833243 0.2370434
-1.0249817 0.74315882 0.28331196
-1.0229131 0.7546761 0.26293856
-1.0361596 0.77330989 0.24235556
0.51046598 0.070833243 0.2370434
-1.0158007 0.78977823 0.20024237
-1.0102959 0.800304 0.17892657
-1.0131133 0.81501049 0.15698412
-1.007329 0.82570601 0.13518244
-1.0189443 0.84533036 0.11176306
-0.99818468 0.84870291 0.090761811
-0.99477941 0.86103201 0.068064079
-0.98403352 0.86961013 0.046022534
0.51046598 0.070833243 0.2370434
0.51046598 0.070833243 0.2370434
0.51046598 0.070833243 0.2370434
0.51046598 0.070833243 0.2370434
-0.82309747 0.85037273 -0.042587861
-0.80457318 0.85341388 -0.061379641
-0.78024894 0.85279471 -0.078513764
-0.75950432 0.85410595 -0.096133575
-0.73560292 0.85322994 -0.11253241
-0.72015989 0.8574782 -0.13099906
-0.69418925 0.85478055 -0.14596325
-0.66929859 0.85245317 -0.16072726
-0.6382606 0.84565037 -0.17276004
-0.61394393 0.84297442 -0.18652602
-0.59459633 0.84343725 -0.20171651
-0.5816378 0.84822887 -0.21921791
-0.068029366 0.49010649 -0.016872801
-0.046340436 0.48173034 -0.01935878
-0.021947838 0.47089174 -0.019835714
0.18897846 0.31681257 0.074718714
0.20628741 0.30782863 0.076494068
0.21085621 0.3085511 0.071904473
0.21684478 0.30808359 0.068201177
0.21990317 0.30994096 0.062882841
0.22296156 0.31179833 0.057564504
0.22321059 0.31605396 0.050421007
0.22074093 0.32276282 0.041294768
0.21426864 0.3331975 0.02906312
0.21820307 0.33456081 0.023899019
0.22212237 0.33591494 0.018761218
0.21805164 0.34472981 0.007386297
0.19377923 0.37308496 -0.020865008
0.20456332 0.36834714 -0.021164156
0.21582317 0.36287221 -0.020613089
0.22690181 0.3572872 -0.01974684
0.23654555 0.35288295 -0.019740641
0.24727681 0.347087 -0.018270336
0.25660342 0.34249011 -0.017712601
0.26517481 0.33846074 -0.017519251
0.27420688 0.33368504 -0.016449377
0.28308791 0.32881761 -0.0151169
0.29065493 0.32520431 -0.01485455
0.29867506 0.32084012 -0.013702571
0.30655923 0.31639344 -0.012314245
0.31374866 0.31255081 -0.01139532
0.32081723 0.30863488 -0.010266289
0.32776502 0.30464548 -0.0089271516
0.33405575 0.30128324 -0.0081230998
0.34076938 0.29715174 -0.0063768625
0.34684116 0.2936565 -0.0051919967
-0.73484254 0.44139647 0.52432668
-0.73760378 0.44987133 0.51220733
0.51046598 0.070833243 0.2370434
0.51046598 0.070833243 0.2370434
0.51046598 0.070833243 0.2370434
0.51046598 0.070833243 0.2370434
-3.7840521 1.512288 0.95515728
0.51046598 0.070833243 0.2370434
0.51046598 0.070833243 0.2370434
0.51046598 0.070833243 0.2370434
0.51046598 0.070833243 0.2370434
0.51046598 0.070833243 0.2370434
-0.81369853 0.57014763 0.36702698
-0.78250396 0.56777352 0.34831578
-0.76890147 0.57197344 0.33143055
-0.77048898 0.58217639 0.31557798
-0.77791685 0.59492344 0.29972875
-0.77912676 0.60535562 0.28321958
0.51046598 0.070833243 0.2370434
0.51046598 0.070833243 0.2370434
0.51046598 0.070833243 0.2370434
-1.0616666 0.77283645 0.2093778
-1.0283158 0.77075684 0.18860871
-1.0161577 0.77814049 0.16746667
-1.0284568 0.79706573 0.1448596
-1.0282329 0.81039906 0.12247288
-1.0204082 0.82022691 0.10040566
-1.0097538 0.82872772 0.07849434
-1.0109053 0.843256 0.055115134
-1.0055099 0.85465407 0.032196045
0.51046598 0.070833243 0.2370434
0.51046598 0.070833243 0.2370434
0.51046598 0.070833243 0.2370434
0.51046598 0.070833243 0.2370434
0.51046598 0.070833243 0.2370434
0.51046598 0.070833243 0.2370434
-0.82155144 0.85267329 -0.098181024
-0.79792315 0.85281032 -0.11557952
-0.77534133 0.8533271 -0.13285062
-0.76205707 0.85936427 -0.15256679
-0.73486602 0.85658932 -0.16770068
-0.71202308 0.85624933 -0.18373355
-0.68617278 0.85367525 -0.19822781
-0.65899992 0.84987396 -0.21163768
-0.63449812 0.84749603 -0.22547922
0.51046598 0.070833243 0.2370434
-0.066556841 0.47671053 -0.02016376
-0.040989503 0.46584305 -0.020629089
-0.015814967 0.45473716 -0.020411596
0.19543138 0.30486989 0.075879395
0.20752734 0.30003372 0.075150467
0.21281111 0.30019706 0.071038574
0.21877885 0.29976061 0.067429513
0.22107781 0.30217192 0.061739665
0.22339189 0.30459246 0.056023553
0.22360137 0.30878037 0.048890896
0.22107521 0.31536764 0.039746925
0.21382967 0.326195 0.026965
0.21433365 0.33056179 0.019320212
0.21963254 0.33073431 0.015182041
0.22287972 0.33270633 0.0095354021
0.20628928 0.35308617 -0.012377836
0.20976299 0.35519579 -0.018418416
0.21969828 0.35107774 -0.018774144
0.22820523 0.34812269 -0.020030499
0.23722246 0.34446228 -0.020481989
0.24797425 0.33880979 -0.018873468
0.25731289 0.33432946 -0.018191837
0.26589215 0.33040309 -0.017881669
0.27433541 0.32639414 -0.017335162
0.28264281 0.32230264 -0.016552269
0.29081428 0.31812865 -0.015533
0.29884976 0.31387204 -0.014277354
0.30617872 0.31020159 -0.013485163
0.31338686 0.3064577 -0.012482867
0.32047415 0.30264047 -0.011270449
0.32744062 0.2987498 -0.0098479241
0.33374587 0.29547277 -0.0089676231
0.34047827 0.29143998 -0.0071380287
0.34656447 0.28802994 -0.0058768988
-0.73615634 0.42546713 0.51564586
-0.74121964 0.43444327 0.50397158
-1.0516332 0.53414965 0.55396986
-1.0465331 0.54226834 0.53656811
0.51046598 0.070833243 0.2370434
0.51046598 0.070833243 0.2370434
0.51046598 0.070833243 0.2370434
0.51046598 0.070833243 0.2370434
0.51046598 0.070833243 0.2370434
0.51046598 0.070833243 0.2370434
-0.9383266 0.57584637 0.4030149
0.51046598 0.070833243 0.2370434
0.51046598 0.070833243 0.2370434
-0.82279336 0.56366116 0.34205016
0.51046598 0.070833243 0.2370434
-0.79915321 0.57400095 0.30776778
-0.79642612 0.58268684 0.29107946
-0.80057752 0.59422529 0.27440628
-0.78867441 0.59944564 0.25712064
-0.77778411 0.60505503 0.2398897
0.51046598 0.070833243 0.2370434
-1.0521172 0.74374574 0.19813423
-1.0380014 0.75030988 0.17700103
-1.0343927 0.7615397 0.15536639
-1.030648 0.77285224 0.13349538
-1.044577 0.79251242 0.10993224
-1.0320489 0.80012077 0.088146746
-1.028743 0.81217092 0.065332398
-1.0271157 0.82521033 0.04202345
0.51046598 0.070833243 0.2370434
0.51046598 0.070833243 0.2370434
0.51046598 0.070833243 0.2370434
0.51046598 0.070833243 0.2370434
-1.1065835 0.94064319 -0.097961187
0.51046598 0.070833243 0.2370434
0.51046598 0.070833243 0.2370434
0.51046598 0.070833243 0.2370434
-0.85275102 0.85980058 -0.1400179
-0.816257 0.85284001 -0.15398732
-0.79600191 0.85509849 -0.17214394
-0.77424955 0.85625768 -0.18949069
-0.75104547 0.85628998 -0.20594884
-0.72319907 0.8531161 -0.22024016
-0.69725758 0.85079378 -0.23463218
-0.682702 0.85561657 -0.2531172
-0.082408756 0.46798816 -0.018753508
-0.059582263 0.45975709 -0.020902334
-0.035545636 0.45025247 -0.02174234
-0.010344204 0.43944672 -0.021194723
0.2027334 0.2926788 0.077588946
0.20880108 0.29234672 0.073863983
0.21480836 0.29197791 0.070244081
0.2207552 0.29157245 0.066729233
0.22301218 0.29394737 0.061097909
0.22312921 0.2980355 0.054067999
0.2240175 0.3015877 0.047403604
0.22073163 0.3086305 0.037758209
0.21410325 0.3186647 0.025392286
0.20493379 0.33117267 0.010618798
0.21509252 0.32729957 0.010019287
0.21904294 0.32869437 0.0048563704
0.22164729 0.33128029 -0.001379028
0.22163503 0.33629411 -0.0098906383
0.22495016 0.33830741 -0.015655458
0.22890812 0.33970687 -0.020831518
0.23793322 0.33614948 -0.02116622
0.24870551 0.33064047 -0.019419484
0.25743604 0.32690427 -0.019242048
0.26664329 0.32245326 -0.018186979
0.27509442 0.3185474 -0.017523661
0.28340966 0.31455892 -0.016623974
0.2915889 0.31048793 -0.015487924
0.29904985 0.30698493 -0.014809325
0.30638999 0.30340853 -0.01392059
0.31417662 0.29909903 -0.012101695
0.32070777 0.29603565 -0.011512846
0.32713318 0.29290801 -0.010740146
0.33345288 0.28971621 -0.0097835809
0.34020397 0.28578213 -0.0078705847
0.34630468 0.28245732 -0.0065332204
-0.73518407 0.40900502 0.50651884
0.51046598 0.070833243 0.2370434
-1.033041 0.50823689 0.53912854
-1.0868363 0.53318059 0.53285235
0.51046598 0.070833243 0.2370434
0.51046598 0.070833243 0.2370434
0.51046598 0.070833243 0.2370434
0.51046598 0.070833243 0.2370434
0.51046598 0.070833243 0.2370434
0.51046598 0.070833243 0.2370434
0.51046598 0.070833243 0.2370434
0.51046598 0.070833243 0.2370434
0.51046598 0.070833243 0.2370434
0.51046598 0.070833243 0.2370434
0.51046598 0.070833243 0.2370434
-0.90530992 0.59375548 0.30324343
-0.92306483 0.61078626 0.28592804
-0.92035741 0.62037718 0.26745144
-0.88371879 0.61680126 0.24848711
-0.79220778 0.59092247 0.23048389
-0.78028101 0.59617889 0.21318629
-0.78393292 0.6078679 0.19544142
0.51046598 0.070833243 0.2370434
-1.0479457 0.74255359 0.14338227
-1.0479828 0.75544459 0.1210725
-1.0459404 0.76761174 0.098588914
-1.0371935 0.77689695 0.076494664
-1.0339453 0.7888031 0.05363515
0.51046598 0.070833243 0.2370434
-1.0525136 0.82520688 0.0033122897
0.51046598 0.070833243 0.2370434
0.51046598 0.070833243 0.2370434
0.51046598 0.070833243 0.2370434
0.51046598 0.070833243 0.2370434
0.51046598 0.070833243 0.2370434
0.51046598 0.070833243 0.2370434
0.51046598 0.070833243 0.2370434
-1.0773989 0.96008837 -0.21329692
0.51046598 0.070833243 0.2370434
0.51046598 0.070833243 0.2370434
-0.81065828 0.85288602 -0.21072903
-0.7887646 0.85426199 -0.22814763
-0.7629863 0.85303056 -0.2437162
-0.77291268 0.87382239 -0.27292398
-0.74970984 0.87400681 -0.28917706
-0.079271764 0.45371455 -0.021366181
-0.054063782 0.44419 -0.022174312
-0.02923332 0.43443611 -0.022325847
0.00059470907 0.42076391 -0.019120272
0.20405424 0.28506404 0.076278485
0.21086141 0.28423139 0.073046669
0.21610259 0.28443438 0.069095805
0.2212985 0.28460982 0.065223731
0.22425872 0.28640759 0.060076103
0.22649634 0.28875989 0.054463893
0.22731906 0.29223952 0.047870018
0.22535722 0.29800147 0.03923396
0.21510215 0.31064701 0.024366371
0.18990204 0.33606982 -0.002376534
0.18312624 0.34685493 -0.016410068
0.2016356 0.33624226 -0.010732904
0.21579446 0.32894757 -0.0078169405
0.21779282 0.33214787 -0.014734171
0.2217852 0.33357912 -0.019955605
0.2302919 0.33079857 -0.020979524
0.23931727 0.32733962 -0.021184295
0.24947059 0.32257903 -0.019908391
0.25820893 0.31894585 -0.01961416
0.2668114 0.3152301 -0.019083574
0.27588725 0.31080848 -0.017655052
0.28421032 0.30692303 -0.016638577
0.29180324 0.30358753 -0.016073555
0.29927534 0.30017868 -0.015298426
0.30720568 0.29605475 -0.013599113
0.31385702 0.2931408 -0.01311785
0.32096669 0.28951174 -0.011712387
0.32739905 0.28646481 -0.01085031
0.33372569 0.28335363 -0.0098043829
0.34048796 0.27951366 -0.0077948868
0.34606183 0.27693865 -0.0071610212
-0.74438071 0.39531809 0.4995997
0.51046598 0.070833243 0.2370434
0.51046598 0.070833243 0.2370434
-1.0551264 0.50329238 0.51582402
0.51046598 0.070833243 0.2370434
0.51046598 0.070833243 0.2370434
0.51046598 0.070833243 0.2370434
0.51046598 0.070833243 0.2370434
0.51046598 0.070833243 0.2370434
0.51046598 0.070833243 0.2370434
0.51046598 0.070833243 0.2370434
0.51046598 0.070833243 0.2370434
0.51046598 0.070833243 0.2370434
0.51046598 0.070833243 0.2370434
-0.9165616 0.56681257 0.31131566
-0.93672681 0.58403891 0.29431447
-0.93515003 0.59383827 0.27595246
-0.9324311 0.60334885 0.25733984
-0.93158865 0.61368465 0.23851922
-0.89987099 0.61231607 0.21981135
-0.79667151 0.58264196 0.20349763
-0.77492356 0.58406055 0.18650606
-0.77853638 0.59562033 0.16849053
-0.76944613 0.60212338 0.15094763
0.51046598 0.070833243 0.2370434
-1.0548195 0.74613726 0.086604118
-1.0545187 0.75909138 0.063518703
-1.0475068 0.76924425 0.040912032
0.51046598 0.070833243 0.2370434
0.51046598 0.070833243 0.2370434
-0.99959439 0.78753495 -0.023313254
-1.0113493 0.80692172 -0.049732864
0.51046598 0.070833243 0.2370434
0.51046598 0.070833243 0.2370434
0.51046598 0.070833243 0.2370434
0.51046598 0.070833243 0.2370434
0.51046598 0.070833243 0.2370434
0.51046598 0.070833243 0.2370434
0.51046598 0.070833243 0.2370434
0.51046598 0.070833243 0.2370434
0.51046598 0.070833243 0.2370434
0.51046598 0.070833243 0.2370434
0.51046598 0.070833243 0.2370434
0.51046598 0.070833243 0.2370434
0.51046598 0.070833243 0.2370434
-0.072888166 0.43765768 -0.02245051
-0.046877839 0.42791083 -0.022555863
-0.023599232 0.41945234 -0.023117783
0.16687897 0.29934925 0.062189985
0.20693798 0.27652103 0.075837284
0.21220702 0.27677363 0.071881585
0.21743067 0.27699873 0.068004653
0.22186713 0.27772814 0.063761085
0.22407034 0.28004861 0.05819425
0.22701545 0.28183717 0.053072892
0.22708362 0.28580827 0.046012133
0.22721215 0.28981602 0.038846299
0.22528869 0.29552487 0.030042082
0.21023571 0.31192613 0.011093348
0.17697144 0.34379292 -0.023047432
0.18675977 0.34089565 -0.024448588
0.198434 0.33619639 -0.023922458
0.20926058 0.33196479 -0.023657933
0.21992102 0.32763225 -0.023104511
0.22976407 0.32378578 -0.022865228
0.24009985 0.3192561 -0.021747142
0.24899706 0.31581765 -0.021598771
0.25901568 0.3110953 -0.019929156
0.26700491 0.30808783 -0.019937322
0.27671385 0.30317748 -0.017729327
0.28443879 0.30000946 -0.017277882
0.29204285 0.2967681 -0.016616344
0.30011699 0.29282975 -0.015036613
0.3074719 0.289437 -0.01394172
0.31470597 0.28597093 -0.012636706
0.32125098 0.28306881 -0.011869103
0.32769027 0.28010246 -0.010917649
0.33402389 0.27707189 -0.0097823441
0.34025174 0.27397719 -0.008463189
0.34583589 0.27147391 -0.0077601969
0.51046598 0.070833243 0.2370434
0.51046598 0.070833243 0.2370434
0.51046598 0.070833243 0.2370434
0.51046598 0.070833243 0.2370434
0.51046598 0.070833243 0.2370434
0.51046598 0.070833243 0.2370434
0.51046598 0.070833243 0.2370434
0.51046598 0.070833243 0.2370434
0.51046598 0.070833243 0.2370434
0.51046598 0.070833243 0.2370434
0.51046598 0.070833243 0.2370434
0.51046598 0.070833243 0.2370434
0.51046598 0.070833243 0.2370434
0.51046598 0.070833243 0.2370434
0.51046598 0.070833243 0.2370434
-0.93861461 0.56353593 0.28406346
-0.93914211 0.57390219 0.26572996
-0.93950331 0.5843693 0.24710757
-0.9376927 0.59421241 0.22820853
-0.92778361 0.60120189 0.20922709
-0.89118946 0.59816653 0.1910937
-0.81675905 0.58022064 0.1754182
-0.777354 0.57500637 0.15939721
-0.77507675 0.5841614 0.14143665
-0.77746642 0.59533966 0.12284142
-0.76825947 0.60190254 0.10508122
0.51046598 0.070833243 0.2370434
0.51046598 0.070833243 0.2370434
-1.0345229 0.75108111 0.0080760419
-1.0191824 0.75748289 -0.013349652
-1.0157468 0.76928437 -0.036824644
-1.0130649 0.7815997 -0.0607391
-1.0093197 0.79358935 -0.084752545
-1.0178778 0.81170797 -0.11187193
-1.0454788 0.83963507 -0.14437853
0.51046598 0.070833243 0.2370434
0.51046598 0.070833243 0.2370434
-1.1000499 0.91335928 -0.24198976
0.51046598 0.070833243 0.2370434
0.51046598 0.070833243 0.2370434
0.51046598 0.070833243 0.2370434
0.51046598 0.070833243 0.2370434
0.51046598 0.070833243 0.2370434
0.51046598 0.070833243 0.2370434
-0.087986052 0.428247 -0.020833204
-0.067202024 0.42241067 -0.023724116
-0.041164909 0.41296402 -0.023499388
-0.016304329 0.40377432 -0.022978738
0.18595885 0.27984753 0.069814377
0.20679738 0.27015826 0.073828958
0.21206395 0.27044216 0.069920942
0.2172852 0.27069855 0.066091709
0.22171502 0.27144578 0.061888661
0.22463748 0.2732206 0.056806691
0.22609788 0.27605051 0.050767012
0.22686504 0.27943093 0.0441828
0.22696155 0.28337556 0.037014686
0.22570176 0.28843951 0.028705001
0.22523342 0.29301262 0.020769119
0.21929446 0.30203542 0.0083457977
0.18955185 0.33060482 -0.023936726
0.19918945 0.32771423 -0.024945326
0.21003231 0.32361263 -0.024549745
0.22004603 0.31997892 -0.024462283
0.23056421 0.31568012 -0.023502015
0.24026829 0.31185842 -0.022876181
0.25046176 0.30736241 -0.021351263
0.25922334 0.30393985 -0.020836569
0.26847434 0.29984295 -0.019422829
0.27695656 0.29625067 -0.018422283
0.28469265 0.2931768 -0.017874345
0.29291055 0.28942403 -0.01641418
0.30039746 0.28619882 -0.015432879
0.30835101 0.28228554 -0.013513118
0.3150087 0.27952823 -0.012839973
0.32156068 0.27670676 -0.011982962
0.32744202 0.2744495 -0.011709899
0.33434743 0.27087113 -0.0097174495
0.34003243 0.26849464 -0.0091029406
0.3456268 0.26606309 -0.0083308518
0.51046598 0.070833243 0.2370434
0.51046598 0.070833243 0.2370434
0.51046598 0.070833243 0.2370434
0.51046598 0.070833243 0.2370434
0.51046598 0.070833243 0.2370434
0.51046598 0.070833243 0.2370434
0.51046598 0.070833243 0.2370434
0.51046598 0.070833243 0.2370434
0.51046598 0.070833243 0.2370434
0.51046598 0.070833243 0.2370434
0.51046598 0.070833243 0.2370434
0.51046598 0.070833243 0.2370434
0.51046598 0.070833243 0.2370434
0.51046598 0.070833243 0.2370434
-0.96459383 0.54097718 0.29288262
