# .PCD v0.7 - Point Cloud Data file format
VERSION 0.7
FIELDS x y z
SIZE 4 4 4
TYPE F F F
COUNT 1 1 1
WIDTH 1377
HEIGHT 1
VIEWPOINT 0 0 0 1 0 0 0
POINTS 1377
DATA ascii
0.36650398 0.36605391 -0.01908911
0.37036207 0.36886516 -0.018467158
0.37410051 0.37185568 -0.016700402
0.37780243 0.37458271 -0.015974276
0.38150385 0.3770656 -0.016312875
0.3850736 0.3797214 -0.015498646
0.38866693 0.38214603 -0.015765093
0.39221218 0.38454476 -0.015999518
0.39547002 0.38727623 -0.013912261
0.35873243 0.44233093 0.33755013
0.35873243 0.44233093 0.33755013
0.35873243 0.44233093 0.33755013
0.35873243 0.44233093 0.33755013
0.35873243 0.44233093 0.33755013
-0.013246357 0.11394513 0.068953991
-0.033574998 0.093834668 0.045530543
-0.015492767 0.10776576 0.050376564
0.0043789595 0.123446 0.057198986
0.015242517 0.13113244 0.057349958
-0.00769189 0.10804834 0.029324703
-0.011048779 0.10257786 0.016771004
-0.0073033273 0.10355084 0.010046542
-0.0021326244 0.10581513 0.0044848099
0.0024335831 0.10749202 -0.0017304122
0.0057907701 0.10799422 -0.0092525259
0.010525182 0.10976178 -0.015579917
0.02396293 0.11988185 -0.012919322
0.029277831 0.1222238 -0.01857727
0.036418229 0.12633431 -0.022282891
0.043534622 0.13043189 -0.025972426
0.051763892 0.13565233 -0.028291054
0.062146872 0.14307971 -0.027819552
0.072361633 0.15041642 -0.02723591
0.081875794 0.15711398 -0.027241535
0.091245748 0.16373381 -0.0271511
0.10047156 0.17027591 -0.026964471
0.10955319 0.17674032 -0.026681643
0.11849063 0.183127 -0.026302736
0.17924175 0.24620831 0.05574698
0.18702956 0.25223681 0.05794926
0.18792446 0.25062719 0.048899509
0.18813901 0.24812788 0.03819032
0.18859382 0.24575809 0.027320851
0.17733307 0.22948965 -0.0063767619
0.17421409 0.22231691 -0.026485413
0.18130577 0.22718565 -0.02698868
0.18792507 0.23153827 -0.028233545
0.19520076 0.23676765 -0.027802898
0.20235626 0.2419323 -0.027292125
0.20871127 0.24614246 -0.028360706
0.21565053 0.25119054 -0.027705697
0.2221535 0.25574186 -0.027816329
0.22856031 0.26024145 -0.027862858
0.23516318 0.2651082 -0.026983485
0.24108568 0.2690852 -0.027763572
0.24747226 0.2738353 -0.026739966
0.25348261 0.27812117 -0.026522096
0.25964093 0.28274831 -0.025346216
0.26521498 0.28653747 -0.025893955
0.270937 0.29066789 -0.025483714
0.27635488 0.29437286 -0.025927287
0.28189668 0.29840612 -0.025396883
0.28697437 0.30166626 -0.026670136
0.29234797 0.30560881 -0.026027579
0.29746547 0.30915192 -0.026270768
0.30265886 0.31299734 -0.025508016
0.30762017 0.31645623 -0.025647067
0.31250939 0.31987625 -0.025738034
0.31743845 0.32357925 -0.024798973
0.32227138 0.32723036 -0.023795804
0.32692033 0.33052087 -0.023726512
0.33142132 0.33347011 -0.024615202
0.3359381 0.33668935 -0.024457749
0.34043464 0.34015918 -0.023230217
0.34475538 0.34301123 -0.023998708
0.34908372 0.34639043 -0.02265897
0.35330012 0.34944773 -0.022301245
0.35744449 0.35246623 -0.021895412
0.36150849 0.35570291 -0.020379413
0.36549664 0.35863718 -0.019869413
0.36941266 0.36153263 -0.019311339
0.37325665 0.36438918 -0.018705212
0.37697223 0.36743802 -0.016956836
0.38066003 0.37021041 -0.016246513
0.38435602 0.37272575 -0.016598307
0.388004 0.37521511 -0.016918048
0.39160389 0.37767869 -0.017205745
0.39503935 0.38031504 -0.016327143
0.39827436 0.38310486 -0.014258251
0.35873243 0.44233093 0.33755013
0.35873243 0.44233093 0.33755013
0.35873243 0.44233093 0.33755013
0.35873243 0.44233093 0.33755013
0.35873243 0.44233093 0.33755013
-0.016503781 0.10076199 0.064755425
-0.030487493 0.085686885 0.045780152
-0.013248622 0.099166803 0.050006039
-0.00066579878 0.10846194 0.051047914
0.016628191 0.1222507 0.056285135
0.020391539 0.12344187 0.050630584
-0.0002490133 0.10142853 0.023516603
0.01076977 0.10932225 0.023505151
0.0052238703 0.10130794 0.0083362758
0.0097681582 0.10292006 0.002160877
0.025757492 0.1157264 0.0072200373
0.025271192 0.11239354 -0.0039858297
0.038420811 0.12255252 -0.0012256205
0.036411464 0.11756118 -0.014560372
0.042327553 0.12047109 -0.019554228
0.050554723 0.12574337 -0.021896601
0.057590291 0.12981504 -0.02554068
0.06569729 0.13502254 -0.027802989
0.075339362 0.14189503 -0.027944371
0.084837258 0.14868976 -0.027989693
0.094702654 0.15596178 -0.027231842
0.10390019 0.1625946 -0.027076811
0.11246588 0.1686077 -0.027548596
0.12186271 0.17562713 -0.026478272
0.17791772 0.23599231 0.049342625
0.18531308 0.2416537 0.050699569
0.18772866 0.24156001 0.04384752
0.18812647 0.23898289 0.033100169
0.18377775 0.23049724 0.012939974
0.1698688 0.20987932 -0.027049204
0.1774493 0.21536136 -0.026863934
0.18453012 0.22029491 -0.02739357
0.19151485 0.22517657 -0.027859163
0.19840345 0.2300065 -0.028260592
0.20519593 0.2347846 -0.028597947
0.21222378 0.2399687 -0.028044047
0.21913147 0.24508806 -0.027410053
0.22530414 0.24925289 -0.028382188
0.23199555 0.25425565 -0.027603954
0.23856685 0.25919366 -0.026745565
0.2447466 0.26364148 -0.026674259
0.2508302 0.26803744 -0.026538849
0.25681773 0.27238163 -0.026339337
0.26270914 0.27667397 -0.026075693
0.26850441 0.28091452 -0.025748001
0.27420354 0.28510326 -0.025356149
0.2796073 0.28885359 -0.025815515
0.28512624 0.29294518 -0.025303498
0.2901985 0.29623768 -0.026589951
0.29554924 0.30023861 -0.025965752
0.30065262 0.30382708 -0.026224794
0.30568391 0.30737662 -0.026435725
0.31064314 0.31088734 -0.026598584
0.31576064 0.31504169 -0.024770623
0.32055163 0.31846172 -0.024821328
0.32527053 0.32184291 -0.024823956
0.32991737 0.32518524 -0.024778444
0.33449209 0.32848874 -0.024684917
0.33899474 0.33175331 -0.024543282
0.3434253 0.33497909 -0.024353564
0.34778377 0.33816591 -0.024115805
0.35207015 0.34131399 -0.023829937
0.35629153 0.34470615 -0.022452522
0.36042175 0.34776995 -0.02206251
0.36446288 0.35106498 -0.020564865
0.3684369 0.35404459 -0.020070687
0.37229782 0.35724247 -0.018452857
0.37611565 0.36013788 -0.017854512
0.37992638 0.36275041 -0.018299639
0.38353503 0.36581224 -0.016513526
0.38731465 0.36812878 -0.017986126
0.39096922 0.37065706 -0.01832708
0.39446265 0.37337765 -0.017512389
0.39788398 0.37605938 -0.016649559
0.40109614 0.37890756 -0.014599048
0.35873243 0.44233093 0.33755013
0.35873243 0.44233093 0.33755013
0.35873243 0.44233093 0.33755013
0.35873243 0.44233093 0.33755013
-0.02947861 0.080503449 0.06200695
-0.012897491 0.093596883 0.065505549
-0.0068902373 0.096835069 0.061499074
-0.01023297 0.091174558 0.050211102
0.0051242858 0.10331146 0.053486124
0.013217166 0.10856435 0.051208049
0.021237969 0.11377839 0.048978105
0.031200171 0.12092936 0.048572667
0.0113561 0.098656647 0.021255352
0.013804913 0.098195769 0.013383366
0.018303275 0.099730149 0.0072638392
0.024743065 0.1032015 0.0029688925
0.031793952 0.10729906 -0.00069382787
0.037023574 0.10952444 -0.0062612221
0.042888314 0.112389 -0.011212423
0.050502226 0.11708688 -0.014210872
0.057505056 0.12115854 -0.017841555
0.065034896 0.12581111 -0.020783871
0.069821604 0.12750092 -0.027095705
0.078896396 0.13387673 -0.027949065
0.088880993 0.14133662 -0.027329557
0.097691461 0.14756995 -0.028006598
0.10736368 0.15486144 -0.027178816
0.11638876 0.16150728 -0.026959185
0.12526967 0.1680754 -0.026643422
0.18131715 0.23093742 0.050354131
0.18467414 0.23185652 0.044995792
0.18594879 0.23016912 0.035827305
0.18490247 0.22544962 0.021967985
0.16751161 0.19975027 -0.023622269
0.17315844 0.20279418 -0.027388357
0.18071938 0.20835394 -0.027232051
0.1877894 0.21335225 -0.027788088
0.19512206 0.218789 -0.027479563
0.20233458 0.22416098 -0.027090881
0.2090922 0.22899093 -0.027438611
0.21575372 0.23376904 -0.027722206
0.2223191 0.23849535 -0.027941758
0.22848964 0.24271204 -0.028937729
0.23544823 0.24824393 -0.027339896
0.24171324 0.25280833 -0.027359065
0.24814484 0.2577593 -0.026449569
0.25420561 0.26221365 -0.026332518
0.25993162 0.26619068 -0.02703204
0.26603881 0.2709668 -0.025906164
0.27159664 0.27485317 -0.026493475
0.27728495 0.27910671 -0.02612808
0.28287715 0.28330842 -0.025698524
0.28819466 0.2870653 -0.026125606
0.29360664 0.29116985 -0.025575854
0.29876798 0.29484248 -0.025898768
0.30371469 0.29810262 -0.027118323
0.30887437 0.30207118 -0.0264003
0.31381944 0.30562729 -0.026578978
0.3187989 0.3094987 -0.025740761
0.32368225 0.31331834 -0.024838474
0.32838702 0.31674489 -0.024856888
0.33301973 0.32013255 -0.024827205
0.33758032 0.32348138 -0.024749439
0.34206882 0.32679135 -0.024623625
0.34651965 0.33037782 -0.02343284
0.35085198 0.33360356 -0.023202859
0.35511222 0.33679053 -0.022924773
0.35930201 0.33964264 -0.023639508
0.36340278 0.34333721 -0.0211755
0.36743474 0.3464011 -0.020745136
0.3713946 0.34942606 -0.020266749
0.3752327 0.35268226 -0.018667333
0.37903637 0.35562307 -0.018084757
0.38276798 0.35852504 -0.017454125
0.38651323 0.36113751 -0.017872378
0.39030817 0.36347997 -0.019363567
0.39385954 0.36628479 -0.018612713
0.39733887 0.36905074 -0.017813817
0.40074605 0.37177786 -0.016966812
0.4040812 0.37446606 -0.016071722
0.35873243 0.44233093 0.33755013
0.35873243 0.44233093 0.33755013
0.35873243 0.44233093 0.33755013
0.35873243 0.44233093 0.33755013
0.35873243 0.44233093 0.33755013
-0.0085392445 0.087116264 0.066802345
0.0032482147 0.095986068 0.067191936
0.0077383667 0.097777523 0.062134542
0.010879546 0.098212861 0.055913977
0.016176298 0.10075356 0.051349968
0.022846028 0.10466334 0.047933087
0.034128904 0.11326114 0.048659205
0.03481251 0.11111383 0.039952181
0.041434169 0.11499767 0.036567308
0.046152562 0.11691216 0.031357653
0.033715889 0.10077392 0.0087104812
0.038264424 0.10228236 0.0025826693
0.044656172 0.10572781 -0.0016802251
0.053939655 0.11230443 -0.002714783
0.058572322 0.11385822 -0.0088986307
0.063277036 0.11545085 -0.015130572
0.068053827 0.11708234 -0.021410599
0.072372451 0.11815237 -0.028416425
0.082488269 0.1258066 -0.027943283
0.092435881 0.13337016 -0.027358025
0.10172107 0.14026217 -0.027362265
0.11086204 0.14707643 -0.027270436
0.11985885 0.15381299 -0.027082417
0.13100255 0.16327919 -0.023169272
0.18248561 0.22310755 0.047696557
0.18419209 0.22182606 0.0393387
0.1843781 0.21846715 0.027869366
0.16719198 0.19222125 -0.016363643
0.16921952 0.19048391 -0.026998419
0.17686908 0.19617978 -0.026943225
0.18439844 0.20181084 -0.026807897
0.19072141 0.20584816 -0.028962141
0.19839662 0.21187231 -0.027892698
0.20558959 0.21732204 -0.027533039
0.21233638 0.22221676 -0.027907141
0.21930107 0.22754344 -0.027395204
0.22554158 0.23185083 -0.02846309
0.23200002 0.2365901 -0.02864491
0.23864032 0.24174191 -0.027916623
0.2448945 0.24637112 -0.027962221
0.25105259 0.25094852 -0.027943688
0.25735649 0.25591898 -0.026991067
0.26331031 0.26038626 -0.026836313
0.26938593 0.2652337 -0.025731448
0.27492961 0.26916546 -0.026334554
0.2804012 0.2730583 -0.026889609
0.28616443 0.27773735 -0.025576347
0.29129794 0.2811335 -0.026937341
0.29669911 0.28530288 -0.026414018
0.30200413 0.28942046 -0.025826566
0.30707926 0.29309958 -0.026117194
0.31208226 0.29673991 -0.026359685
0.3170132 0.30034134 -0.026554158
0.32196981 0.30427104 -0.025734358
0.32674456 0.30778834 -0.025824632
0.33152097 0.31162089 -0.024884637
0.3361395 0.31505397 -0.024870742
0.34068596 0.31844813 -0.024808805
0.34516034 0.32180345 -0.024698783
0.34956262 0.32511994 -0.024540633
0.35390651 0.32871938 -0.023312166
0.3581526 0.33195171 -0.023049898
0.36232665 0.33514509 -0.02273953
0.36642852 0.33829963 -0.022381108
0.370424 0.34171125 -0.020920236
0.37441611 0.3444922 -0.02151997
0.37824342 0.34781313 -0.019946955
0.38197452 0.3510823 -0.018309832
0.38577443 0.35375956 -0.018781364
0.38962072 0.35614741 -0.0203152
0.39333656 0.35877934 -0.020730644
0.39688581 0.36163598 -0.020003594
0.40036297 0.36445379 -0.019228496
0.40362555 0.36747035 -0.017278865
0.35873243 0.44233093 0.33755013
0.35873243 0.44233093 0.33755013
0.35873243 0.44233093 0.33755013
0.35873243 0.44233093 0.33755013
0.35873243 0.44233093 0.33755013
0.35873243 0.44233093 0.33755013
0.0045288801 0.089316316 0.074565955
0.010391995 0.0924768 0.070655622
0.017658696 0.097058162 0.067855179
0.020048827 0.096685871 0.061146185
0.35873243 0.44233093 0.33755013
0.029184103 0.10028166 0.050961606
0.036438763 0.10485654 0.048169151
0.035302967 0.10059078 0.037673838
0.05899018 0.12265909 0.050519459
0.067179874 0.12840226 0.049149364
0.068005294 0.12619013 0.040415008
0.057149589 0.11103858 0.01901152
0.054528207 0.10464349 0.005415082
0.060811803 0.10803064 0.0012243092
0.054827675 0.097497933 -0.017290302
0.065194875 0.1054113 -0.01704365
0.068990707 0.10579675 -0.024690166
0.0755146 0.10931344 -0.029041201
0.08560545 0.11707782 -0.028610319
0.095528111 0.12475155 -0.028067194
0.10528256 0.13233458 -0.027411938
0.11439526 0.13923959 -0.02735164
0.12382532 0.14664778 -0.026480038
0.15646078 0.18383582 0.012110185
0.18286628 0.21401216 0.043602537
0.18301602 0.2104394 0.032249872
0.17185351 0.19146895 -0.00020178035
0.16564247 0.17848897 -0.025725968
0.17258973 0.18323028 -0.027290393
0.18059711 0.18953942 -0.026492929
0.18772954 0.1947127 -0.027157858
0.19476585 0.19983414 -0.027758712
0.20170605 0.20490377 -0.028295463
0.20887946 0.21043123 -0.027964799
0.21593274 0.21589397 -0.02755394
0.22256054 0.22079523 -0.027882386
0.22909226 0.22564465 -0.028146666
0.23580912 0.23092604 -0.027511507
0.24213657 0.23566537 -0.027639568
0.24836791 0.24035291 -0.027703553
0.2545031 0.24498861 -0.027703434
0.26077545 0.2500304 -0.026771767
0.26648521 0.25410461 -0.027510861
0.27254128 0.25902981 -0.02643499
0.27828002 0.26345178 -0.026170414
0.28373748 0.26739001 -0.026741264
0.28912285 0.27128938 -0.027264036
0.29475841 0.27598786 -0.025907682
0.29982644 0.27938408 -0.027241779
0.30512062 0.28356642 -0.026680727
0.3101936 0.28729743 -0.026995163
0.31519452 0.29098952 -0.027261492
0.32022437 0.2950294 -0.026524181
0.32515818 0.29901749 -0.025722768
0.32991877 0.30258006 -0.025828842
0.3346723 0.30647099 -0.024907229
0.3392767 0.3099494 -0.024909157
0.34380907 0.31338894 -0.024862953
0.34824032 0.31644189 -0.025772367
0.35265744 0.32015145 -0.024626397
0.35697851 0.32380927 -0.023416325
0.3612175 0.32675853 -0.024197526
0.36537033 0.33032569 -0.022875242
0.36945811 0.3335256 -0.022532612
0.37347382 0.33668667 -0.022141907
0.37741742 0.33980885 -0.021703064
0.38115472 0.3434841 -0.019080691
0.38500926 0.34622616 -0.019605488
0.38881576 0.34894231 -0.020098224
0.39257419 0.35163251 -0.020558909
0.39616942 0.35456693 -0.019887723
0.39969254 0.35746247 -0.019168459
0.40300432 0.36057621 -0.017285295
0.35873243 0.44233093 0.33755013
0.35873243 0.44233093 0.33755013
0.35873243 0.44233093 0.33755013
0.35873243 0.44233093 0.33755013
0.35873243 0.44233093 0.33755013
0.35873243 0.44233093 0.33755013
0.35873243 0.44233093 0.33755013
0.35873243 0.44233093 0.33755013
0.015350729 0.086881593 0.072465643
0.02258797 0.091482386 0.069668002
0.029777139 0.096057288 0.066902414
0.032903969 0.096343599 0.060758725
0.033498764 0.093865842 0.052245431
0.042671055 0.10055912 0.051200926
0.041595086 0.096131377 0.040758222
0.063760221 0.11717412 0.052354433
0.073121011 0.12431878 0.052198827
0.068010449 0.11526763 0.037344866
0.061577573 0.10445428 0.020329073
0.063670397 0.10313384 0.011831276
0.059761286 0.094730332 -0.0038239881
0.055735797 0.085914291 -0.020416178
0.069347456 0.097798944 -0.016304806
0.070049629 0.09432967 -0.027933493
0.078709081 0.1003967 -0.02965048
0.088774957 0.10827127 -0.029261753
0.098672636 0.11605514 -0.02876088
0.10887891 0.12435518 -0.02745121
0.11796337 0.13135087 -0.027422532
0.1341483 0.14777082 -0.015896186
0.17845501 0.20208645 0.042822152
0.1820827 0.20299257 0.037358981
0.17119628 0.18383202 0.0060656443
0.16122299 0.1651637 -0.02583674
0.16865695 0.17057015 -0.026736405
0.1767562 0.17703481 -0.026050653
0.18397391 0.18232466 -0.026806118
0.1910955 0.18756273 -0.027497478
0.19812098 0.19274896 -0.028124701
0.20538299 0.19841248 -0.027895115
0.21252483 0.20401125 -0.027585428
0.21954653 0.20954527 -0.027195584
0.2258549 0.21399514 -0.02835916
0.23237576 0.21890937 -0.028649842
0.2388005 0.22377181 -0.02887645
0.24565026 0.22956291 -0.027357323
0.25185874 0.23430878 -0.027439728
0.25797111 0.23900281 -0.027457967
0.26398736 0.24364501 -0.027412131
0.26990747 0.24823543 -0.027302198
0.2757315 0.25277403 -0.027128156
0.28164786 0.25771219 -0.026001118
0.2870912 0.2616958 -0.026587732
0.29262686 0.26607895 -0.026221409
0.297914 0.26997834 -0.026703827
0.30312902 0.27383888 -0.027138222
0.30840039 0.27807957 -0.026595587
0.31345922 0.28185594 -0.026925787
0.31844598 0.28559339 -0.027207939
0.32345301 0.28969163 -0.026488986
0.32828358 0.29334491 -0.026666965
0.33311039 0.29734597 -0.025827825
0.33778477 0.30091506 -0.025901634
0.3424314 0.30481896 -0.024942327
0.34694958 0.30830389 -0.024911944
0.3513754 0.31138918 -0.025834553
0.35576969 0.31515709 -0.024706971
0.36007541 0.3181777 -0.02554943
0.3643015 0.32185492 -0.024309658
0.36845922 0.32514554 -0.024038922
0.3725051 0.32872561 -0.022678934
0.37645486 0.33225387 -0.021254897
0.38037232 0.33541498 -0.020823836
0.38421768 0.33853722 -0.02034476
0.38799098 0.34162059 -0.019817598
0.39179209 0.34436914 -0.020323507
0.39554513 0.34709179 -0.020797394
0.39912614 0.35007155 -0.020142026
0.40263516 0.35301241 -0.019438557
0.40577617 0.35645455 -0.016460538
0.35873243 0.44233093 0.33755013
0.35873243 0.44233093 0.33755013
0.35873243 0.44233093 0.33755013
0.35873243 0.44233093 0.33755013
0.35873243 0.44233093 0.33755013
0.35873243 0.44233093 0.33755013
0.35873243 0.44233093 0.33755013
0.35873243 0.44233093 0.33755013
0.35873243 0.44233093 0.33755013
0.026815459 0.085196182 0.070925891
0.034659579 0.090526909 0.068712875
0.040450573 0.093648523 0.064850643
0.042351663 0.092468545 0.057545692
0.048851058 0.096339479 0.054217182
0.054077849 0.098789506 0.049725048
0.064839169 0.10753 0.050597295
0.071206406 0.11132971 0.047356892
0.067549378 0.10347909 0.033697203
0.068310469 0.10058226 0.024134062
0.065902501 0.093772426 0.010647498
0.057780713 0.079840533 -0.010096207
0.060007125 0.078101054 -0.019630402
0.073517442 0.090160638 -0.015560813
0.07277903 0.084618233 -0.029154696
0.08195582 0.09140221 -0.030244224
0.091996729 0.099386938 -0.02989766
0.10234955 0.10790725 -0.028752983
0.11251013 0.1163239 -0.02748014
0.1343368 0.14058298 -0.0078273937
0.17399758 0.18988863 0.042190224
0.1772674 0.1901814 0.035984792
0.15711081 0.1572687 -0.010942198
0.15634929 0.15097892 -0.026533037
0.16468459 0.15767677 -0.026055161
0.17210773 0.163148 -0.026981231
0.18017872 0.16970338 -0.02632707
0.18774554 0.17561954 -0.026342828
0.19484429 0.18091594 -0.027052572
0.20184691 0.18616046 -0.027698213
0.20907734 0.19189529 -0.02748964
0.21618763 0.19756535 -0.027200878
0.22287787 0.2026415 -0.02763821
0.22947201 0.20766586 -0.028011383
0.23597002 0.21263842 -0.02832048
0.2423719 0.21755919 -0.028565474
0.24892952 0.22293134 -0.027908145
0.25512716 0.22774193 -0.028016917
0.26122868 0.23250078 -0.028061587
0.26723412 0.23720782 -0.028042125
0.2733472 0.24234031 -0.027088344
0.27914837 0.24693723 -0.02693266
0.28485343 0.25148234 -0.026712934
0.29029459 0.25551778 -0.027323324
0.29581943 0.25996572 -0.026983403
0.30110443 0.263917 -0.027489658
0.30644906 0.26826775 -0.027029511
0.31157786 0.27213484 -0.027431592
0.31674227 0.27638853 -0.026851226
0.32181054 0.28059036 -0.02620681
0.32661545 0.28391534 -0.027399035
0.33151552 0.28802651 -0.026642378
0.33625987 0.29168633 -0.026788078
0.34097973 0.2957004 -0.025911229
0.34556788 0.29927596 -0.02595276
0.35008395 0.3028127 -0.025946215
0.35452795 0.30631056 -0.025891528
0.35889983 0.30976963 -0.025788829
0.36319968 0.31318977 -0.025638022
0.36740291 0.31692535 -0.024416637
0.37154651 0.3202613 -0.024161693
0.37556955 0.32389972 -0.022820093
0.37955695 0.32715151 -0.022460967
0.38339975 0.33069274 -0.020999178
0.38723099 0.3338604 -0.020535894
0.39108676 0.33667368 -0.021095097
0.39489442 0.33946115 -0.021622248
0.39853343 0.34252509 -0.021030724
0.40196773 0.34584618 -0.019296512
0.40545058 0.34882593 -0.018600821
0.35873243 0.44233093 0.33755013
0.35873243 0.44233093 0.33755013
0.35873243 0.44233093 0.33755013
0.35873243 0.44233093 0.33755013
0.35873243 0.44233093 0.33755013
0.35873243 0.44233093 0.33755013
0.35873243 0.44233093 0.33755013
0.35873243 0.44233093 0.33755013
0.35873243 0.44233093 0.33755013
0.35873243 0.44233093 0.33755013
0.033745557 0.081907265 0.074372374
0.038197264 0.083536722 0.069407821
0.045955166 0.088873938 0.067227088
0.051722139 0.091982603 0.063380875
0.051840797 0.088580519 0.054321863
0.0632561 0.098199949 0.055688441
0.070833758 0.10344 0.053627901
0.073606938 0.1030093 0.046789534
0.071864039 0.097063281 0.034981035
0.064758331 0.084375307 0.01677154
0.064871341 0.080199957 0.0057208166
0.054378882 0.062605448 -0.018212035
0.063764378 0.069590271 -0.019482769
0.069913 0.072519518 -0.024581298
0.075578198 0.074803084 -0.030355178
0.085750297 0.08298216 -0.030154981
0.095754229 0.091070548 -0.029842667
0.11030396 0.10546049 -0.022584446
0.1556835 0.16265699 0.031960055
0.16815187 0.17553988 0.039608635
0.15846792 0.15722585 0.012143295
0.14409745 0.13137904 -0.025167406
0.15183416 0.13708995 -0.026336219
0.15947472 0.14274904 -0.027440961
0.16779378 0.1495441 -0.027002659
0.17559338 0.15567401 -0.027215704
0.18327281 0.16173917 -0.027348604
0.19118337 0.16831404 -0.02663786
0.19827127 0.17367518 -0.027374003
0.20526306 0.17898455 -0.028046044
0.21247394 0.18479715 -0.027866436
0.21956466 0.19054496 -0.027606696
0.22595289 0.19514383 -0.028873976
0.23282737 0.20077507 -0.028470002
0.23931453 0.20581245 -0.028805502
0.24570559 0.21079797 -0.029076865
0.25248677 0.21676405 -0.027612962
0.25866157 0.22163299 -0.027740095
0.26474026 0.22645018 -0.027803151
0.27072281 0.23121549 -0.027802106
0.27680433 0.23641931 -0.026869278
0.28258264 0.24107453 -0.026732011
0.28826484 0.24567798 -0.026530642
0.2936919 0.24975874 -0.027156856
0.2990469 0.25380069 -0.027734989
0.30446476 0.25826162 -0.02735737
0.30966353 0.26221937 -0.027831301
0.31479025 0.26613823 -0.028257225
0.31994379 0.27045667 -0.027703285
0.32491431 0.2742914 -0.028025009
0.32988763 0.27851272 -0.027350873
0.33470196 0.28226322 -0.027568426
0.33949509 0.28638738 -0.026774097
0.34415323 0.29005367 -0.026887484
0.34876612 0.2940807 -0.025972959
0.35326803 0.29766279 -0.025982209
0.3576979 0.30120605 -0.025943346
0.36206484 0.30433026 -0.0268603
0.36636254 0.30780229 -0.026733331
0.37055492 0.31160262 -0.025538325
0.37465122 0.31535119 -0.024279244
0.37865138 0.31904793 -0.022956032
0.38262469 0.32234508 -0.02261271
0.38644463 0.32594463 -0.021169327
0.39035502 0.32882276 -0.021781769
0.39411205 0.33200333 -0.021294218
0.39791432 0.33482313 -0.02183456
0.40153921 0.33793247 -0.021258838
0.40495068 0.3413119 -0.019543022
0.40841937 0.34433699 -0.018863149
0.35873243 0.44233093 0.33755013
0.35873243 0.44233093 0.33755013
0.35873243 0.44233093 0.33755013
0.35873243 0.44233093 0.33755013
0.35873243 0.44233093 0.33755013
0.35873243 0.44233093 0.33755013
0.35873243 0.44233093 0.33755013
0.35873243 0.44233093 0.33755013
0.35873243 0.44233093 0.33755013
0.35873243 0.44233093 0.33755013
0.35873243 0.44233093 0.33755013
0.045027018 0.080299683 0.072870791
0.052710667 0.085649833 0.07071434
0.052751601 0.082046926 0.061782837
0.063529655 0.091078997 0.06250941
0.065619409 0.089788847 0.055179499
0.06963791 0.090746664 0.04953137
0.072562829 0.090309441 0.042633846
0.053346068 0.062228598 0.011918545
0.054185838 0.058653519 0.0014649257
0.065654844 0.06846083 0.0027200133
0.057121024 0.052582972 -0.019290403
0.06755653 0.061027654 -0.019324742
0.070673421 0.059888348 -0.028329015
0.078945816 0.065555893 -0.030878112
0.090066373 0.075175375 -0.029390648
0.13230085 0.12814988 0.016643256
0.15515113 0.15536994 0.038009696
0.13069329 0.11560283 -0.010975912
0.12931551 0.10801296 -0.026876085
0.1377323 0.11456387 -0.027542792
0.14602898 0.12105005 -0.028129365
0.15460809 0.12809123 -0.027915023
0.16343364 0.13566807 -0.026875593
0.17133383 0.14194049 -0.027197734
0.17911388 0.14814818 -0.027439788
0.18712832 0.15488499 -0.026848771
0.19431351 0.16036925 -0.027683433
0.20173311 0.16638266 -0.027685065
0.20871407 0.17175683 -0.028383506
0.21621189 0.17821512 -0.027447965
0.22268209 0.18291119 -0.028795142
0.22964513 0.18867847 -0.02849225
0.23621757 0.19383243 -0.028918281
0.24295236 0.19947667 -0.02846317
0.24932057 0.20452052 -0.028752923
0.25582707 0.2100417 -0.028145596
0.26221344 0.21549813 -0.027458083
0.26805887 0.21985741 -0.028388586
0.27422896 0.22519727 -0.027556866
0.28009257 0.22996911 -0.027510107
0.28586003 0.23468916 -0.02739924
0.29136908 0.23886709 -0.028105352
0.29695633 0.24349001 -0.027874321
0.30244747 0.24806112 -0.027579129
0.30771625 0.2521095 -0.02812501
0.31302714 0.25658345 -0.027709624
0.31824195 0.26100558 -0.027230162
0.32327041 0.2649245 -0.027615782
0.3282268 0.26880455 -0.027953271
0.33317727 0.27308416 -0.027297553
0.33797747 0.27688003 -0.027530869
0.34274772 0.28106251 -0.026754957
0.34739172 0.28477415 -0.026884135
0.35196364 0.28844699 -0.026965238
0.35646343 0.29208091 -0.026998289
0.36089119 0.29567599 -0.026983265
0.36524683 0.29923218 -0.026920103
0.36950046 0.30313623 -0.025799636
0.37369993 0.30660826 -0.025632299
0.37777337 0.31041512 -0.024391614
0.38181663 0.31380299 -0.024120178
0.38570985 0.31751269 -0.022759259
0.38950694 0.3211706 -0.021334294
0.39341193 0.32408109 -0.021959931
0.39726883 0.32696575 -0.022553556
0.40082562 0.33049411 -0.020968303
0.40456241 0.33331394 -0.021481782
0.407951 0.33675164 -0.019784361
0.35873243 0.44233093 0.33755013
0.35873243 0.44233093 0.33755013
0.35873243 0.44233093 0.33755013
0.35873243 0.44233093 0.33755013
0.35873243 0.44233093 0.33755013
0.35873243 0.44233093 0.33755013
0.35873243 0.44233093 0.33755013
0.35873243 0.44233093 0.33755013
0.35873243 0.44233093 0.33755013
0.35873243 0.44233093 0.33755013
0.35873243 0.44233093 0.33755013
0.35873243 0.44233093 0.33755013
0.049202204 0.074091233 0.074113131
0.057493925 0.080242597 0.072506882
0.059467778 0.078783989 0.065304719
0.059755355 0.075155102 0.056284383
0.075212762 0.090214312 0.06167043
0.082079902 0.094756886 0.059052363
0.057322741 0.05912856 0.0235736
0.051264212 0.046613164 0.0060334057
0.053985566 0.045137025 -0.0026482493
0.065484226 0.055119269 -0.0014886186
0.059932902 0.042456821 -0.020348042
0.070869476 0.051715635 -0.019794464
0.072577357 0.048431903 -0.030742981
0.081875712 0.055546343 -0.032039687
0.10013585 0.075479828 -0.020675309
0.10477176 0.076297075 -0.027690984
0.11313559 0.082487285 -0.029345334
0.12228716 0.089943051 -0.029563196
0.13172452 0.097973265 -0.028990634
0.14057577 0.10526709 -0.029008172
0.14968869 0.11312246 -0.028219305
0.15823956 0.12025439 -0.028036516
0.16664624 0.12730858 -0.027757574
0.17490876 0.13428506 -0.027382471
0.18266924 0.14057051 -0.027653486
0.19065544 0.14739805 -0.027094062
0.19782978 0.1529471 -0.027955122
0.20522982 0.15903825 -0.027985744
0.21219994 0.16447718 -0.028710589
0.21937171 0.17044528 -0.028588964
0.22613758 0.17577417 -0.029177587
0.23280732 0.18105119 -0.029702108
0.23964266 0.18683793 -0.029356152
0.2463579 0.19255993 -0.028930007
0.25295299 0.19821715 -0.028423792
0.25942791 0.20380963 -0.027837418
0.26556903 0.20880175 -0.028009366
0.27161402 0.21374196 -0.028117212
0.27756289 0.21863045 -0.028160956
0.28341565 0.22346711 -0.028140562
0.28917229 0.22825195 -0.028056096
0.2948328 0.23298496 -0.027907528
0.30039722 0.2376662 -0.027694851
0.30573595 0.24180529 -0.028312586
0.31112012 0.24638937 -0.027979724
0.31630266 0.25044429 -0.028493322
0.32150662 0.25493121 -0.02804023
0.32661447 0.25936633 -0.027523063
0.33148721 0.26283383 -0.028810982
0.33642685 0.2671783 -0.028181635
0.34127042 0.27147093 -0.027488185
0.34601784 0.27571175 -0.026730604
0.35062623 0.27903676 -0.027842239
0.35520545 0.28318688 -0.026972495
0.35969114 0.28686622 -0.027021319
0.36410475 0.29050666 -0.027022086
0.36844626 0.29410824 -0.026974745
0.37267703 0.29807058 -0.025872633
0.37681171 0.30198109 -0.024706386
0.3809756 0.3050665 -0.025521547
0.38494205 0.30888632 -0.024243176
0.38881242 0.31265438 -0.022900648
0.39268535 0.31600338 -0.022540838
0.39648622 0.31931353 -0.022132918
0.400215 0.32258484 -0.02167692
0.40387169 0.32581723 -0.021172866
0.40745628 0.32901081 -0.020620711
0.35873243 0.44233093 0.33755013
0.35873243 0.44233093 0.33755013
0.35873243 0.44233093 0.33755013
0.35873243 0.44233093 0.33755013
0.35873243 0.44233093 0.33755013
0.35873243 0.44233093 0.33755013
0.35873243 0.44233093 0.33755013
0.35873243 0.44233093 0.33755013
0.35873243 0.44233093 0.33755013
0.35873243 0.44233093 0.33755013
0.35873243 0.44233093 0.33755013
0.35873243 0.44233093 0.33755013
0.35873243 0.44233093 0.33755013
0.35873243 0.44233093 0.33755013
0.061634243 0.074086003 0.073738843
0.06488733 0.07408718 0.067679048
0.06342499 0.068041779 0.056983843
0.079344362 0.084070683 0.062899798
0.067716926 0.06466008 0.041478343
0.053983346 0.041923746 0.016598836
0.05271183 0.035104997 0.0038312897
0.057190388 0.035766758 -0.0030458346
0.063353136 0.038650662 -0.0081285834
0.064366519 0.03437788 -0.019502379
0.070192143 0.036641978 -0.025332756
0.075079203 0.037523948 -0.032482326
0.08583793 0.046828166 -0.031877369
0.095465854 0.054646626 -0.032463357
0.10586414 0.063756563 -0.031618021
0.11562495 0.072084732 -0.031320103
0.12521754 0.080322288 -0.03090997
0.13464195 0.088469118 -0.0303877
0.14430732 0.097183973 -0.029053569
0.15298611 0.1044908 -0.029006533
0.1619059 0.11236566 -0.028147649
0.1702843 0.11951058 -0.02790032
0.17815739 0.12594502 -0.028288469
0.18660861 0.13356729 -0.027117115
0.19388027 0.13923942 -0.028076693
0.20138091 0.14547309 -0.028216442
0.20876141 0.15164199 -0.028276086
0.21572067 0.15714575 -0.0290273
0.2228729 0.16319162 -0.028934699
0.22990496 0.16917269 -0.028761942
0.23655188 0.17450804 -0.029304817
0.24310265 0.17979161 -0.029783618
0.24979833 0.18559137 -0.029386496
0.25637382 0.19132636 -0.028909277
0.26261225 0.19644153 -0.029179715
0.26916444 0.20260204 -0.027714416
0.27499363 0.20705853 -0.028684463
0.28111261 0.21254742 -0.027902748
0.28694251 0.21744238 -0.027900776
0.29251939 0.22176285 -0.028702576
0.29816908 0.2265607 -0.028580409
0.30385551 0.23181644 -0.0275102
0.30918008 0.2360009 -0.02814376
0.31432375 0.23964976 -0.029629145
0.31970984 0.2447436 -0.028358642
0.32489097 0.24928883 -0.027923938
0.32990319 0.25330493 -0.028349159
0.33490407 0.25775301 -0.02779429
0.33980885 0.26214933 -0.027175318
0.34458077 0.26603588 -0.027440254
0.3492806 0.2698836 -0.02765711
0.35392106 0.27413744 -0.026861858
0.35846472 0.27790093 -0.026974544
0.36293626 0.2816256 -0.027039185
0.36733571 0.2853114 -0.027055725
0.37162778 0.28937739 -0.026028086
0.37587103 0.29297897 -0.025940444
0.38004223 0.29654172 -0.025804773
0.38406995 0.30046526 -0.024600819
0.38808495 0.30394378 -0.024360966
0.39193246 0.30777016 -0.023036823
0.39579123 0.31116453 -0.022692807
0.39957798 0.31452003 -0.022300709
0.40329263 0.31783667 -0.02186048
0.40693516 0.32111448 -0.021372221
0.41050562 0.3243534 -0.020835891
0.35873243 0.44233093 0.33755013
0.35873243 0.44233093 0.33755013
0.35873243 0.44233093 0.33755013
0.35873243 0.44233093 0.33755013
0.35873243 0.44233093 0.33755013
0.35873243 0.44233093 0.33755013
0.35873243 0.44233093 0.33755013
0.35873243 0.44233093 0.33755013
0.35873243 0.44233093 0.33755013
0.35873243 0.44233093 0.33755013
0.35873243 0.44233093 0.33755013
0.35873243 0.44233093 0.33755013
0.35873243 0.44233093 0.33755013
0.35873243 0.44233093 0.33755013
0.35873243 0.44233093 0.33755013
0.069667265 0.06866049 0.0694822
0.068297505 0.062453084 0.058826104
0.0730232 0.064088918 0.053746082
0.058461338 0.039832242 0.028749116
0.053671405 0.028135128 0.01266101
0.053174719 0.021942571 0.00045851618
0.062578112 0.029290222 -0.00099232048
0.059886724 0.019635849 -0.016551763
0.065257221 0.021163523 -0.023025967
0.070699766 0.02273006 -0.029548176
0.078152791 0.027203329 -0.033554763
0.088417277 0.035926633 -0.03365162
0.098052979 0.043855272 -0.034293197
0.10933869 0.054496355 -0.032178745
0.11907452 0.062934682 -0.031923026
0.12906668 0.071966961 -0.030874066
0.13804156 0.079539374 -0.031074964
0.1472728 0.087705746 -0.030482646
0.1563358 0.095781386 -0.029778197
0.16485415 0.10310772 -0.029674571
0.17359279 0.11100851 -0.02875378
0.18181078 0.11817292 -0.028449804
0.18988459 0.12525962 -0.028049767
0.1971574 0.13100302 -0.029043756
0.20465052 0.13732095 -0.029220512
0.21202348 0.14357409 -0.029317137
0.21927629 0.14976245 -0.029333631
0.22668929 0.15649296 -0.028492853
0.23342147 0.16194491 -0.02912626
0.24031384 0.16793899 -0.0289024
0.24684179 0.17328089 -0.029399559
0.25350589 0.17915189 -0.029023448
0.25982958 0.18438366 -0.02938439
0.26626539 0.19013166 -0.028856004
0.27258104 0.19581489 -0.028247515
0.27859235 0.20087829 -0.028400119
0.28450754 0.20588985 -0.028488649
0.29032663 0.21084961 -0.028513076
0.29604957 0.21575761 -0.028473398
0.30167639 0.22061373 -0.028369615
0.30733126 0.22594076 -0.027320385
0.31264174 0.23017059 -0.02796974
0.31777993 0.23385182 -0.029468326
0.32313448 0.23901695 -0.028218804
0.32829273 0.24362053 -0.027802486
0.33329082 0.24768196 -0.028243503
0.33826888 0.25218838 -0.027707025
0.34311074 0.25616568 -0.028043812
0.34790856 0.26057494 -0.027387165
0.35257825 0.26400363 -0.028573278
0.35720786 0.26832223 -0.027804391
0.36174139 0.27258903 -0.02697143
0.36621884 0.27591404 -0.028029334
0.37058413 0.28009018 -0.027084187
0.37485331 0.28421453 -0.026074916
0.37908244 0.28786147 -0.026003104
0.38323951 0.2914696 -0.025883213
0.38724437 0.2954514 -0.024697654
0.39124525 0.29897535 -0.02447357
0.395174 0.30246043 -0.024201434
0.39891458 0.30629975 -0.022839591
0.40268716 0.30970064 -0.022463284
0.4062475 0.31344283 -0.020981248
0.41001606 0.31638578 -0.021566413
0.35873243 0.44233093 0.33755013
0.35873243 0.44233093 0.33755013
0.35873243 0.44233093 0.33755013
0.35873243 0.44233093 0.33755013
0.35873243 0.44233093 0.33755013
0.35873243 0.44233093 0.33755013
0.35873243 0.44233093 0.33755013
0.35873243 0.44233093 0.33755013
0.35873243 0.44233093 0.33755013
0.35873243 0.44233093 0.33755013
0.35873243 0.44233093 0.33755013
0.35873243 0.44233093 0.33755013
0.35873243 0.44233093 0.33755013
0.35873243 0.44233093 0.33755013
0.35873243 0.44233093 0.33755013
0.35873243 0.44233093 0.33755013
0.073833749 0.06246502 0.070721939
0.074904636 0.059254959 0.062361911
0.084747657 0.0678747 0.062487297
0.055783913 0.022910185 0.022549167
0.054064304 0.014882021 0.0093601272
0.055384919 0.010859728 -0.0010778978
0.068472356 0.023595437 0.0016623065
0.059770793 0.0047024637 -0.021206118
0.069286808 0.012199104 -0.022774071
0.071852192 0.0093212426 -0.033086568
0.081772014 0.017508961 -0.033968121
0.092011511 0.026342444 -0.034107141
0.1020828 0.035085231 -0.034133993
0.11242574 0.044447877 -0.033386245
0.1221486 0.053002868 -0.033180661
0.13211907 0.062164716 -0.032184571
0.14149354 0.070531897 -0.031746618
0.15109156 0.079493001 -0.030502096
0.15973781 0.086994231 -0.030534264
0.16823991 0.094417721 -0.030470274
0.17695358 0.10242872 -0.029591616
0.1851553 0.1096903 -0.029327326
0.19321284 0.11687417 -0.028966866
0.20080654 0.12333464 -0.029252712
0.20828012 0.12973028 -0.029458491
0.21592914 0.13669398 -0.028825583
0.22286677 0.14232732 -0.029629625
0.22997986 0.1485287 -0.029594984
0.23671323 0.15405196 -0.030262809
0.24359806 0.16013026 -0.030075919
0.25059831 0.16674425 -0.029010283
0.2570073 0.17209259 -0.029461786
0.26353168 0.17797662 -0.02903448
0.26993594 0.1837959 -0.028527105
0.27622005 0.18955041 -0.027939569
0.28220853 0.19467214 -0.02811059
0.28793734 0.19918045 -0.029064175
0.29389706 0.2047601 -0.028260319
0.29959717 0.20972641 -0.028238999
0.30520114 0.21464087 -0.028153604
0.31059358 0.21896788 -0.028882826
0.31601736 0.22378522 -0.028677238
0.32134497 0.22855067 -0.028407544
0.32649714 0.2327482 -0.028976507
0.33171195 0.2379263 -0.027675848
0.33669588 0.24203309 -0.028132629
0.34160772 0.24610108 -0.028541364
0.34647882 0.25062048 -0.027967149
0.3512345 0.25460422 -0.028271712
0.35592538 0.25902653 -0.027577337
0.36052483 0.26292607 -0.027777705
0.36505222 0.26678681 -0.027929995
0.36947879 0.27106655 -0.027059328
0.37384999 0.2748431 -0.027107451
0.37814906 0.27858073 -0.027107518
0.38231131 0.28271803 -0.026060544
0.38637742 0.28680354 -0.024949521
0.39043623 0.29041168 -0.024789274
0.39442298 0.29398096 -0.024581015
0.39822477 0.29792398 -0.023293674
0.40193048 0.30181518 -0.021942209
0.40581378 0.30485526 -0.0226207
0.40950015 0.30826262 -0.022212088
0.41279262 0.31240451 -0.019629322
0.35873243 0.44233093 0.33755013
0.35873243 0.44233093 0.33755013
0.35873243 0.44233093 0.33755013
0.35873243 0.44233093 0.33755013
0.35873243 0.44233093 0.33755013
0.35873243 0.44233093 0.33755013
0.35873243 0.44233093 0.33755013
0.35873243 0.44233093 0.33755013
0.35873243 0.44233093 0.33755013
0.35873243 0.44233093 0.33755013
0.35873243 0.44233093 0.33755013
0.35873243 0.44233093 0.33755013
0.35873243 0.44233093 0.33755013
0.35873243 0.44233093 0.33755013
0.35873243 0.44233093 0.33755013
0.35873243 0.44233093 0.33755013
0.35873243 0.44233093 0.33755013
0.077414945 0.050552234 0.06193148
0.072587788 0.038619764 0.047151767
0.056640714 0.010380551 0.019894689
0.055135936 0.0022032857 0.0066884309
0.05926396 0.0019731 -0.00080131739
0.068664312 0.0094957054 -0.0023341626
0.063854799 -0.0043915659 -0.020914927
0.069421738 -0.0028639287 -0.027469642
0.074102446 -0.0027961954 -0.035327956
0.084509209 0.0062510446 -0.035637423
0.095202893 0.015944041 -0.035190873
0.10570437 0.02553343 -0.03461612
0.11601359 0.035019167 -0.03391321
0.1257115 0.043684319 -0.033749864
0.13564831 0.052969314 -0.032798499
0.14539285 0.062150668 -0.031718984
0.15456209 0.070530854 -0.031203032
0.16319212 0.078129277 -0.031274807
0.17203701 0.086334616 -0.0305425
0.18036664 0.0937711 -0.030413974
0.18888709 0.10180156 -0.029465385
0.19659343 0.10841101 -0.029868338
0.20417957 0.11495566 -0.03019128
0.21194452 0.12208779 -0.02968609
0.2192784 0.12849644 -0.0298407
0.22621718 0.13420106 -0.030679157
0.23358567 0.14111945 -0.029909564
0.24030817 0.14670749 -0.030603789
0.24741232 0.15348345 -0.029657884
0.25391859 0.1589549 -0.030207902
0.26054358 0.16498147 -0.02988972
0.26704845 0.17094326 -0.029491436
0.27343312 0.17684028 -0.029013053
0.27969769 0.18267253 -0.028454512
0.28567529 0.18785903 -0.028651934
0.29155684 0.19299375 -0.028785221
0.29734218 0.19807665 -0.028854465
0.30303144 0.20310771 -0.028859545
0.30862457 0.20808697 -0.028800549
0.31412163 0.21301445 -0.028677452
0.31942785 0.21734792 -0.029374385
0.32474467 0.22217825 -0.029131131
0.32996532 0.22695675 -0.028823702
0.3351486 0.23220614 -0.027544025
0.34011841 0.2363583 -0.028016569
0.34501612 0.24047163 -0.028441098
0.34986433 0.24504934 -0.027885301
0.35461649 0.24957529 -0.027265398
0.35927391 0.25355905 -0.027529638
0.3638458 0.25798783 -0.026789544
0.36834705 0.26188746 -0.026949614
0.37273875 0.26621905 -0.026089326
0.37713325 0.26957005 -0.027125556
0.38135675 0.27381101 -0.026153073
0.38555762 0.2775487 -0.026112821
0.38960087 0.28169253 -0.02502016
0.39364558 0.285346 -0.024875738
0.39761817 0.28896067 -0.024683241
0.40139711 0.29296196 -0.023414314
0.40521351 0.2964924 -0.02311762
0.40881225 0.30039659 -0.021728501
0.41263008 0.30343673 -0.022380106
0.35873243 0.44233093 0.33755013
0.35873243 0.44233093 0.33755013
0.35873243 0.44233093 0.33755013
0.35873243 0.44233093 0.33755013
0.35873243 0.44233093 0.33755013
0.35873243 0.44233093 0.33755013
0.35873243 0.44233093 0.33755013
0.35873243 0.44233093 0.33755013
0.35873243 0.44233093 0.33755013
0.35873243 0.44233093 0.33755013
0.35873243 0.44233093 0.33755013
0.35873243 0.44233093 0.33755013
0.35873243 0.44233093 0.33755013
0.35873243 0.44233093 0.33755013
0.35873243 0.44233093 0.33755013
0.35873243 0.44233093 0.33755013
0.35873243 0.44233093 0.33755013
0.35873243 0.44233093 0.33755013
0.35873243 0.44233093 0.33755013
0.067033678 0.017497413 0.038226292
0.060332239 0.0016753897 0.020161815
0.071715027 0.012389846 0.021020435
0.079770431 0.018258303 0.018464752
0.06445466 -0.011873201 -0.01169388
0.073413059 -0.0050092787 -0.013912976
0.073108345 -0.012804538 -0.02779343
0.076457277 -0.015069194 -0.03753832
0.086875111 -0.0058923513 -0.037913933
0.098017588 0.0046925992 -0.036895059
0.10894383 0.015160933 -0.035731941
0.1192314 0.024776295 -0.035081781
0.12932672 0.034288019 -0.034303471
0.1392298 0.043696128 -0.0333969
0.14894067 0.053000614 -0.032362103
0.15771063 0.060780406 -0.032577641
0.16669872 0.069186583 -0.031999752
0.17586894 0.078199588 -0.030604407
0.18383199 0.085035741 -0.031220742
0.19232753 0.093176365 -0.030314285
0.20034057 0.10054816 -0.030025017
0.20790716 0.10717058 -0.030376915
0.21564387 0.11439344 -0.029903311
0.22295815 0.12087984 -0.030086949
0.23015229 0.1273015 -0.030190423
0.23748048 0.13430417 -0.029444378
0.24418017 0.13995051 -0.030156989
0.25124407 0.14681068 -0.029234685
0.2579456 0.15296681 -0.029009659
0.26432088 0.15843832 -0.029505892
0.27079415 0.16447137 -0.029128619
0.2769652 0.16983277 -0.029488631
0.28321016 0.17574281 -0.028959082
0.28917694 0.18099414 -0.029182903
0.2951937 0.18678111 -0.028501112
0.30082217 0.19134128 -0.029438235
0.30662265 0.19701168 -0.028612206
0.31208292 0.20148127 -0.029437123
0.31756911 0.2064735 -0.029340424
0.32295918 0.21141393 -0.029179623
0.32825315 0.21630257 -0.02895472
0.333451 0.2211394 -0.02866568
0.33855271 0.22592437 -0.028312597
0.3435204 0.23012842 -0.028808977
0.3484419 0.23481624 -0.028335674
0.35325339 0.23893608 -0.028727883
0.35799658 0.24403659 -0.027196728
0.36263987 0.24806571 -0.027476784
0.36721107 0.252056 -0.027708706
0.37167603 0.25649774 -0.026930939
0.37609103 0.26040387 -0.027058732
0.38043398 0.26427114 -0.027138427
0.38463461 0.26857036 -0.026184343
0.38882133 0.27235344 -0.02615989
0.39274752 0.27701351 -0.024083871
0.39676607 0.28070587 -0.023947231
0.40071252 0.28435943 -0.023762517
0.40458685 0.28797403 -0.023529746
0.40838915 0.29154986 -0.023248874
0.41211933 0.29508683 -0.022919919
0.35873243 0.44233093 0.33755013
0.35873243 0.44233093 0.33755013
0.35873243 0.44233093 0.33755013
0.35873243 0.44233093 0.33755013
0.35873243 0.44233093 0.33755013
0.35873243 0.44233093 0.33755013
0.35873243 0.44233093 0.33755013
0.35873243 0.44233093 0.33755013
0.35873243 0.44233093 0.33755013
0.35873243 0.44233093 0.33755013
0.35873243 0.44233093 0.33755013
0.35873243 0.44233093 0.33755013
0.35873243 0.44233093 0.33755013
0.35873243 0.44233093 0.33755013
0.35873243 0.44233093 0.33755013
0.35873243 0.44233093 0.33755013
0.35873243 0.44233093 0.33755013
0.35873243 0.44233093 0.33755013
0.35873243 0.44233093 0.33755013
0.35873243 0.44233093 0.33755013
0.063976765 -0.00080900639 0.031660028
0.060321823 -0.012780659 0.016418017
0.080605134 0.011839241 0.027083501
0.077322692 6.8351626e-05 0.011593066
0.080968007 -0.0011250377 0.0035787746
0.087672114 0.0024887919 -0.0008924529
0.073530927 -0.028295301 -0.032403447
0.079840228 -0.025947101 -0.03847231
0.0906948 -0.015884824 -0.03826768
0.10179488 -0.0051638186 -0.037296154
0.11267871 0.0054406226 -0.036180422
0.1225189 0.014429711 -0.036229625
0.13299422 0.024813935 -0.034841456
0.14286363 0.034345165 -0.033979729
0.15216318 0.043042824 -0.033668354
0.16202575 0.053096756 -0.031871524
0.1702576 0.060166087 -0.032709166
0.17939414 0.069302253 -0.031358581
0.18800884 0.077630728 -0.030590538
0.19613779 0.085170969 -0.030429002
0.20381698 0.091942385 -0.030898046
0.21166961 0.099333689 -0.030552156
0.21937804 0.10664724 -0.030110162
0.22640325 0.11253975 -0.031073537
0.23384736 0.11971084 -0.030455263
0.24090184 0.12614548 -0.030507602
0.24783613 0.13251539 -0.030479811
0.25487176 0.13946627 -0.029589098
0.26134431 0.14506085 -0.030183878
0.26791817 0.15123644 -0.029915698
0.27437189 0.15734725 -0.02956742
0.28070548 0.16339332 -0.029138952
0.28691894 0.16937463 -0.028630417
0.29286283 0.17468429 -0.028872624
0.298848 0.18054254 -0.028211812
0.30446234 0.18514809 -0.0291647
0.31011793 0.1903023 -0.0292146
0.3156774 0.19540466 -0.029200392
0.32114074 0.20045523 -0.029122081
0.32650799 0.20545401 -0.028979637
0.33177906 0.21040098 -0.028773123
0.33695406 0.21529607 -0.028502498
0.34203294 0.22013943 -0.028167775
0.34701571 0.22493097 -0.027768945
0.35190237 0.22967063 -0.027306015
0.35668769 0.23382936 -0.027706007
0.36139414 0.23847194 -0.027122863
0.36600444 0.24306265 -0.026475655
0.3705495 0.24709184 -0.026715359
0.37497959 0.25158542 -0.025947966
0.37942332 0.25503361 -0.027050659
0.3836852 0.25943658 -0.026171017
0.38792989 0.26330382 -0.026210457
0.39201155 0.26760963 -0.025210634
0.39610004 0.27139267 -0.025145903
0.40000153 0.27560133 -0.02402591
0.40393382 0.27930021 -0.023856983
0.40765506 0.28341168 -0.022616804
0.41158217 0.2865814 -0.02337493
0.41529822 0.2901637 -0.023061775
0.35873243 0.44233093 0.33755013
0.35873243 0.44233093 0.33755013
0.35873243 0.44233093 0.33755013
0.35873243 0.44233093 0.33755013
0.35873243 0.44233093 0.33755013
0.35873243 0.44233093 0.33755013
0.35873243 0.44233093 0.33755013
0.35873243 0.44233093 0.33755013
0.35873243 0.44233093 0.33755013
0.35873243 0.44233093 0.33755013
0.35873243 0.44233093 0.33755013
0.35873243 0.44233093 0.33755013
0.35873243 0.44233093 0.33755013
0.35873243 0.44233093 0.33755013
0.35873243 0.44233093 0.33755013
0.35873243 0.44233093 0.33755013
0.35873243 0.44233093 0.33755013
0.35873243 0.44233093 0.33755013
0.35873243 0.44233093 0.33755013
0.35873243 0.44233093 0.33755013
0.35873243 0.44233093 0.33755013
0.072545946 -0.0084464177 0.02587419
0.079093874 -0.0049167797 0.021507129
0.085641786 -0.0013871416 0.017140068
0.089255273 -0.0027035922 0.0091974959
0.092535913 -0.004743576 0.00055477768
0.073662832 -0.044840015 -0.037573487
0.083292857 -0.036928713 -0.039385624
0.094125777 -0.026736848 -0.039233774
0.10476647 -0.016648568 -0.038953625
0.11563189 -0.005895108 -0.03790132
0.1262811 0.0047417805 -0.036704764
0.13592812 0.013750367 -0.036683992
0.1461688 0.024167039 -0.035215043
0.1558243 0.033724252 -0.034277849
0.16493064 0.042441383 -0.033896495
0.17455862 0.052527785 -0.032018844
0.1856347 0.066115081 -0.026496485
0.19477004 0.075935937 -0.024290305
0.20090947 0.079245374 -0.02838492
0.2076426 0.083962925 -0.031031314
0.2154669 0.09144491 -0.030717071
0.22287427 0.098158114 -0.031046806
0.23016149 0.10480651 -0.03129641
0.23757729 0.11206831 -0.030709719
0.2446122 0.11858074 -0.030791057
0.25152695 0.12502837 -0.030792264
0.25853431 0.13207002 -0.029933138
0.26499602 0.13772935 -0.030554313
0.27173907 0.14462848 -0.029518872
0.27798453 0.15017131 -0.029995816
0.28446323 0.15692796 -0.028784119
0.29049242 0.16235422 -0.029116832
0.29642552 0.16772863 -0.02938541
0.30239114 0.17366461 -0.028753623
0.30811998 0.17892897 -0.028885979
0.31375271 0.18414149 -0.028954294
0.3192893 0.18930221 -0.028958445
0.3247298 0.19441107 -0.028898524
0.33007413 0.19946817 -0.028774496
0.33537897 0.20504798 -0.027701966
0.34078628 0.21340331 -0.022087324
0.34611592 0.22443703 -0.011810349
0.35077757 0.22694987 -0.014919376
0.35535431 0.2239764 -0.027192779
0.36012551 0.22818048 -0.0276086
0.3648091 0.23288135 -0.027043831
0.36939654 0.23753043 -0.026414989
0.37392747 0.24160498 -0.026670542
0.37838629 0.24564062 -0.026877999
0.38277304 0.24963748 -0.027037367
0.38701206 0.25409871 -0.026176155
0.39115497 0.25850818 -0.02525083
0.39530143 0.26237544 -0.025249973
0.3993758 0.26620388 -0.025200978
0.40337807 0.26999348 -0.025103971
0.40703687 0.27468601 -0.022933662
0.41101867 0.27792048 -0.023745067
0.41463292 0.28204498 -0.022467174
0.35873243 0.44233093 0.33755013
0.35873243 0.44233093 0.33755013
0.35873243 0.44233093 0.33755013
0.35873243 0.44233093 0.33755013
0.35873243 0.44233093 0.33755013
0.35873243 0.44233093 0.33755013
0.35873243 0.44233093 0.33755013
0.35873243 0.44233093 0.33755013
0.35873243 0.44233093 0.33755013
0.35873243 0.44233093 0.33755013
0.35873243 0.44233093 0.33755013
0.35873243 0.44233093 0.33755013
0.35873243 0.44233093 0.33755013
0.35873243 0.44233093 0.33755013
0.35873243 0.44233093 0.33755013
0.35873243 0.44233093 0.33755013
0.35873243 0.44233093 0.33755013
