# .PCD v0.7 - Point Cloud Data file format
VERSION 0.7
FIELDS x y z
SIZE 4 4 4
TYPE F F F
COUNT 1 1 1
WIDTH 1448
HEIGHT 1
VIEWPOINT 0 0 0 1 0 0 0
POINTS 1448
DATA ascii
0.10034942 -0.12005179 0.46200001
0.16358107 -0.1434385 0.55199999
0.16732298 -0.13928086 0.53600001
0.1708864 -0.13538307 0.52100003
0.17363119 -0.13122544 0.505
0.1765888 -0.12758751 0.491
0.17947873 -0.12420943 0.47799999
0.18195716 -0.12083134 0.465
0.18443121 -0.11771312 0.45300001
0.18652542 -0.11459488 0.44100001
0.18867855 -0.11173651 0.43000001
0.1909381 -0.10913799 0.41999999
0.19241066 -0.10627961 0.40900001
0.19353503 -0.10342123 0.398
0.19531539 -0.10108256 0.389
0.19629294 -0.098484039 0.37900001
0.19695394 -0.095885515 0.36899999
0.19784798 -0.093546845 0.36000001
0.19958793 -0.091727883 0.35299999
0.20110631 -0.089908913 0.34599999
0.20359722 -0.088609651 0.34099999
0.056476425 -0.11273674 0.46200001
0.06296017 -0.11127263 0.456
0.069869578 -0.11078459 0.454
0.074848697 -0.10761234 0.44100001
0.082014047 -0.10785636 0.442
0.08961381 -0.10858842 0.44499999
0.097308531 -0.10932048 0.44800001
0.15484256 -0.14275107 0.58499998
0.15736911 -0.13689461 0.56099999
0.16121034 -0.13274629 0.54400003
0.16544996 -0.12933002 0.52999997
0.16859043 -0.12542573 0.514
0.17156824 -0.12176544 0.49900001
0.17479055 -0.11859319 0.486
0.17760134 -0.11542095 0.47299999
0.18039194 -0.11249273 0.461
0.18280268 -0.1095645 0.449
0.18483357 -0.10663627 0.43700001
0.1869234 -0.10395206 0.426
0.18911964 -0.10151187 0.41600001
0.1905289 -0.09882766 0.405
0.19207622 -0.096387476 0.39500001
0.193307 -0.093947284 0.38499999
0.19473916 -0.091751114 0.37599999
0.19535269 -0.089310922 0.366
0.19674882 -0.087358773 0.35800001
0.19732632 -0.085162602 0.34900001
0.19994384 -0.08394251 0.34400001
0.20120898 -0.082234375 0.33700001
0.063512452 -0.10496532 0.46000001
0.069561779 -0.10313984 0.45199999
0.075188152 -0.10108617 0.44299999
0.081271835 -0.099945247 0.43799999
0.088405527 -0.10017343 0.43900001
0.095136464 -0.099945247 0.43799999
0.10533125 -0.10313984 0.45199999
0.14135301 -0.12960936 0.56800002
0.15060756 -0.12983754 0.56900001
0.15512498 -0.12618658 0.55299997
0.15943228 -0.12276379 0.53799999
0.16357695 -0.1195692 0.52399999
0.16662244 -0.11591823 0.50800002
0.16984911 -0.11272363 0.49399999
0.17299229 -0.10975722 0.48100001
0.17572396 -0.10679081 0.46799999
0.17804411 -0.1038244 0.45500001
0.18076701 -0.10131436 0.44400001
0.18271877 -0.098576128 0.43200001
0.18560703 -0.096522465 0.42300001
0.18684657 -0.093784235 0.41100001
0.18864714 -0.091502383 0.40099999
0.19061741 -0.089448713 0.39199999
0.19230281 -0.087395042 0.38299999
0.19318539 -0.08511319 0.373
0.19375144 -0.082831331 0.36300001
0.19510008 -0.081005849 0.35499999
0.1956301 -0.078952178 0.34599999
0.19820015 -0.077811249 0.34099999
0.19941781 -0.076213956 0.33399999
0.066176027 -0.091311388 0.43000001
0.072642274 -0.090886682 0.428
0.079230763 -0.090674326 0.42699999
0.086190358 -0.090886682 0.428
0.094267637 -0.092160791 0.43399999
0.10160271 -0.092585497 0.43599999
0.12094641 -0.1032031 0.486
0.14716661 -0.11806774 0.55599999
0.15344189 -0.11615658 0.54699999
0.15735789 -0.11275894 0.53100002
0.16139175 -0.10978601 0.51700002
0.16465446 -0.10660073 0.50199997
0.16778618 -0.1036278 0.48800001
0.17083438 -0.10086723 0.47499999
0.17422204 -0.09853135 0.46399999
0.17687018 -0.095983133 0.45199999
0.17913848 -0.093434907 0.44
0.18144989 -0.091099031 0.42899999
0.1834131 -0.088763162 0.41800001
0.18502811 -0.086427286 0.40700001
0.1872358 -0.084516115 0.398
0.1891586 -0.082604952 0.389
0.19029443 -0.080481432 0.37900001
0.1911137 -0.078357905 0.36899999
0.19215019 -0.076446742 0.36000001
0.19345136 -0.074747927 0.352
0.19393389 -0.072836757 0.34299999
0.19587523 -0.07156264 0.33700001
0.19762664 -0.070288531 0.331
0.05366483 -0.086271673 0.43900001
0.061303321 -0.087254271 0.44400001
0.068638392 -0.087647304 0.44600001
0.075697325 -0.087647304 0.44600001
0.081828497 -0.086664714 0.44100001
0.088808291 -0.086664714 0.44100001
0.096874118 -0.087647304 0.44600001
0.10812765 -0.091184638 0.46399999
0.14110415 -0.11142606 0.56699997
0.14637254 -0.1086748 0.55299997
0.15119776 -0.10592354 0.53899997
0.15557984 -0.10317228 0.52499998
0.15951873 -0.10042102 0.51099998
0.16268648 -0.097473234 0.49599999
0.16606705 -0.094918497 0.48300001
0.16903612 -0.092363752 0.47
0.17234464 -0.090202048 0.45899999
0.17491366 -0.087843828 0.447
0.17750995 -0.085682116 0.43599999
0.17975806 -0.083520412 0.42500001
0.18209673 -0.081555232 0.41499999
0.18320966 -0.079197004 0.403
0.18582448 -0.077624857 0.39500001
0.18721354 -0.07565967 0.38499999
0.18878815 -0.073890999 0.37599999
0.19007786 -0.072122335 0.36700001
0.19108269 -0.070353664 0.35800001
0.19180262 -0.068585001 0.34900001
0.19280307 -0.067012854 0.34099999
0.19413152 -0.065637223 0.33399999
0.19464134 -0.064065069 0.32600001
0.049057845 -0.083295874 0.461
0.05586521 -0.082573131 0.45699999
0.063236311 -0.082753815 0.458
0.070946857 -0.083295874 0.461
0.076206498 -0.081127651 0.449
0.080900736 -0.078778744 0.43599999
0.087398633 -0.078417376 0.43399999
0.094267637 -0.078417376 0.43399999
0.10393304 -0.080585599 0.44600001
0.13488263 -0.097931378 0.542
0.14425503 -0.09847343 0.54500002
0.14895365 -0.095943838 0.53100002
0.15350543 -0.093594931 0.51800001
0.15764572 -0.091246024 0.505
0.16104649 -0.088716432 0.491
0.16469176 -0.086548209 0.479
0.16723786 -0.084018618 0.465
0.17046726 -0.082031079 0.454
0.17334844 -0.080043539 0.44299999
0.17588142 -0.078056 0.43200001
0.17806621 -0.076068468 0.421
0.18034159 -0.074261613 0.41100001
0.18230042 -0.072454765 0.40099999
0.18441315 -0.070828594 0.39199999
0.18575473 -0.069021747 0.382
0.18728185 -0.067395575 0.373
0.189042 -0.065950096 0.36500001
0.18948144 -0.06414324 0.35499999
0.19070347 -0.062697761 0.347
0.19110686 -0.061071593 0.338
0.19238783 -0.059806798 0.331
0.19344722 -0.058542002 0.324
0.058187835 -0.07846944 0.47600001
0.064617015 -0.077150621 0.46799999
0.067253314 -0.072040223 0.43700001
0.072811998 -0.070721403 0.42899999
0.078674108 -0.069897145 0.42399999
0.085183464 -0.069732293 0.42300001
0.092095576 -0.069897145 0.42399999
0.099738441 -0.070556551 0.428
0.10999653 -0.07286448 0.442
0.13922596 -0.086712025 0.52600002
0.14727055 -0.086547174 0.52499998
0.15143104 -0.084239252 0.51099998
0.1557727 -0.082261026 0.49900001
0.15940651 -0.080117956 0.486
0.16262881 -0.077974886 0.47299999
0.16579926 -0.07599666 0.461
0.16858986 -0.074018441 0.449
0.1710006 -0.072040223 0.43700001
0.1742529 -0.070556551 0.428
0.17637438 -0.068743184 0.417
0.17858644 -0.067094669 0.40700001
0.18048197 -0.065446146 0.39700001
0.18253139 -0.063962482 0.38800001
0.18429592 -0.062478818 0.37900001
0.18577556 -0.06099515 0.37
0.18697032 -0.059511486 0.361
0.18841393 -0.05819267 0.35299999
0.18905473 -0.056709006 0.34400001
0.18997605 -0.05539019 0.336
0.19064413 -0.054071378 0.32800001
0.1922531 -0.053082265 0.322
0.081291825 -0.099097185 0.66500002
0.058541913 -0.06318377 0.42399999
0.064790949 -0.062736712 0.421
0.071114749 -0.062438678 0.419
0.077375241 -0.062140644 0.417
0.083773807 -0.061991625 0.41600001
0.091009542 -0.062438678 0.419
0.09927237 -0.063481808 0.426
0.10750792 -0.064375915 0.43200001
0.11619809 -0.065419048 0.43900001
0.14222127 -0.075552292 0.50700003
0.14965297 -0.075254254 0.505
0.15389968 -0.073466033 0.493
0.15743853 -0.0715288 0.47999999
0.1609097 -0.069740579 0.46799999
0.164001 -0.067952357 0.456
0.16708794 -0.066313155 0.44499999
0.17021799 -0.064822972 0.435
0.17221722 -0.063034751 0.42300001
0.17468253 -0.061544567 0.41299999
0.17683129 -0.060054384 0.403
0.17911813 -0.05871322 0.39399999
0.18112007 -0.057372056 0.38499999
0.18283711 -0.056030892 0.37599999
0.18426928 -0.054689728 0.36700001
0.18593447 -0.053497579 0.359
0.18681268 -0.052156415 0.34999999
0.187406 -0.050815251 0.34099999
0.18884525 -0.049772121 0.33399999
0.18948166 -0.048579976 0.32600001
0.19046192 -0.047536846 0.31900001
0.064952277 -0.09549357 0.71700001
0.076087549 -0.095227197 0.71499997
0.08190304 -0.089233883 0.67000002
0.05771349 -0.055671286 0.41800001
0.06371367 -0.055138547 0.414
0.070096403 -0.05500536 0.41299999
0.076076381 -0.054605808 0.41
0.082565531 -0.054605808 0.41
0.089923508 -0.055138547 0.414
0.098806307 -0.056470394 0.42399999
0.10775679 -0.057669058 0.433
0.1138159 -0.057269506 0.43000001
0.12202417 -0.057935428 0.435
0.14668955 -0.065926522 0.495
0.15202665 -0.064861044 0.48699999
0.15612654 -0.063396007 0.47600001
0.15919057 -0.061664607 0.463
0.1625624 -0.060199574 0.45199999
0.16558602 -0.05873454 0.44100001
0.16826147 -0.057269506 0.43000001
0.1705887 -0.055804472 0.419
0.17341365 -0.054605808 0.41
0.17507614 -0.053140774 0.39899999
0.17775428 -0.052075293 0.391
0.17923829 -0.050743446 0.38100001
0.18089204 -0.049544781 0.37200001
0.18276298 -0.0484793 0.36399999
0.18386278 -0.047280639 0.35499999
0.18521143 -0.046215158 0.347
0.18630685 -0.04514968 0.33899999
0.18714902 -0.044084199 0.331
0.18831921 -0.043151908 0.324
0.18867074 -0.042086426 0.31600001
0.06612993 -0.085666567 0.73000002
0.075023383 -0.082732782 0.70499998
0.05256464 -0.050461128 0.43000001
0.056746993 -0.048231453 0.41100001
0.062944174 -0.047996748 0.40900001
0.068738602 -0.047527343 0.405
0.07514862 -0.047527343 0.405
0.08155863 -0.047527343 0.405
0.088837475 -0.047996748 0.40900001
0.097175069 -0.048935559 0.417
0.10725906 -0.050578479 0.43099999
0.1138159 -0.050461128 0.43000001
0.12034108 -0.050343778 0.42899999
0.13039072 -0.051634643 0.44
0.15046582 -0.056563403 0.48199999
0.15448655 -0.055272538 0.47099999
0.15781528 -0.053864323 0.45899999
0.16076414 -0.052456103 0.447
0.16408412 -0.051282588 0.43700001
0.16630493 -0.049874373 0.42500001
0.16896017 -0.048700858 0.41499999
0.17172182 -0.047644693 0.40599999
0.17375977 -0.046471179 0.396
0.1754812 -0.045297664 0.38600001
0.17782697 -0.044358853 0.37799999
0.17943323 -0.043302689 0.36899999
0.1807546 -0.042246528 0.36000001
0.182309 -0.041307714 0.352
0.18361017 -0.040368903 0.34400001
0.18465811 -0.039430093 0.336
0.18601821 -0.038608633 0.329
0.1865755 -0.037669819 0.32100001
0.18747662 -0.036848359 0.31400001
0.055697504 -0.075630933 0.745
0.065133452 -0.072991461 0.71899998
0.073746391 -0.070351996 0.69300002
0.051219963 -0.042536054 0.419
0.056194711 -0.041317839 0.40700001
0.062174689 -0.041013286 0.40400001
0.067889974 -0.040607214 0.40000001
0.074406408 -0.040708732 0.40099999
0.080954492 -0.04081025 0.40200001
0.088185854 -0.041216321 0.40599999
0.096475966 -0.042028464 0.414
0.10676134 -0.043551236 0.42899999
0.11460996 -0.043957308 0.433
0.12062159 -0.043652754 0.43000001
0.12742729 -0.043652754 0.43000001
0.14359808 -0.046698295 0.46000001
0.15087859 -0.046698295 0.46000001
0.15472086 -0.045683112 0.44999999
0.15896589 -0.044870969 0.442
0.1625822 -0.043957308 0.433
0.16473971 -0.04273909 0.421
0.16733164 -0.041723911 0.41100001
0.17002997 -0.04081025 0.40200001
0.17244342 -0.039896585 0.39300001
0.17457198 -0.038982924 0.384
0.17641564 -0.038069263 0.375
0.17797442 -0.037155598 0.366
0.17975041 -0.036343455 0.35800001
0.18127316 -0.035531312 0.34999999
0.18254268 -0.034719165 0.34200001
0.18355896 -0.033907022 0.33399999
0.18488741 -0.033196397 0.32699999
0.18541305 -0.03238425 0.31900001
0.1862825 -0.031673625 0.31200001
0.054725602 -0.062721126 0.73199999
0.064136975 -0.060664695 0.708
0.072575815 -0.058436897 0.68199998
0.049753044 -0.034873631 0.40700001
0.05564243 -0.034530893 0.403
0.061405201 -0.034188155 0.39899999
0.067041352 -0.033845417 0.39500001
0.073478647 -0.033931103 0.396
0.080551736 -0.03427384 0.40000001
0.087534234 -0.034530893 0.403
0.096009903 -0.035302054 0.412
0.10601476 -0.036501639 0.426
0.11752153 -0.038043961 0.44400001
0.12174366 -0.037187114 0.43399999
0.12831631 -0.037101433 0.433
0.13548167 -0.037187114 0.43399999
0.14399065 -0.037615538 0.43900001
0.15093879 -0.037615538 0.43900001
0.15752728 -0.037529852 0.43799999
0.16108029 -0.036758691 0.42899999
0.16317448 -0.035730477 0.417
0.16611023 -0.034959316 0.40799999
0.16833813 -0.03410247 0.398
0.17068827 -0.033331309 0.389
0.17275351 -0.032560147 0.38
0.17453387 -0.031788986 0.37099999
0.17651562 -0.031103509 0.36300001
0.17824411 -0.030418033 0.35499999
0.17920147 -0.029646872 0.34599999
0.18094142 -0.029047079 0.33899999
0.1824598 -0.028447287 0.33199999
0.18375659 -0.027847495 0.32499999
0.18425058 -0.027162017 0.317
0.18508838 -0.026562225 0.31
0.043965176 -0.05210897 0.74599999
0.053903222 -0.050362691 0.72100002
0.063049912 -0.048616413 0.69599998
0.070660323 -0.046381176 0.66399997
0.04926407 -0.02815002 0.403
0.054952078 -0.027800765 0.398
0.060789607 -0.02759121 0.39500001
0.06653218 -0.027381657 0.39199999
0.072736442 -0.027381657 0.39199999
0.079142079 -0.027451508 0.39300001
0.086013786 -0.027661061 0.396
0.093912594 -0.02815002 0.403
0.10501932 -0.029477192 0.42199999
0.12255061 -0.032341089 0.463
0.13408633 -0.033388857 0.47799999
0.13513219 -0.03185213 0.456
0.13735469 -0.030734513 0.44
0.14497465 -0.030874215 0.442
0.15162644 -0.030804364 0.44100001
0.15572903 -0.030245556 0.433
0.15920289 -0.029616894 0.42399999
0.16160926 -0.028848531 0.41299999
0.1644817 -0.028219871 0.40400001
0.16706924 -0.02759121 0.39500001
0.16893312 -0.026892699 0.38499999
0.17093506 -0.026264038 0.37599999
0.17312256 -0.025705229 0.368
0.17505682 -0.025146419 0.36000001
0.17623574 -0.02451776 0.35100001
0.17816561 -0.0240288 0.34400001
0.17934017 -0.023469992 0.336
0.18081106 -0.022981033 0.329
0.18206038 -0.022492075 0.322
0.18250689 -0.021933267 0.31400001
0.18389426 -0.021514159 0.308
0.043257963 -0.039649017 0.73400003
0.05293132 -0.038244557 0.708
0.062053431 -0.037002146 0.685
0.047355186 -0.024037892 0.44499999
0.048530608 -0.02144504 0.39700001
0.054399796 -0.021282988 0.39399999
0.060174018 -0.021120934 0.391
0.066023 -0.021012899 0.389
0.072365336 -0.021066915 0.38999999
0.078537941 -0.021066915 0.38999999
0.085579373 -0.021282988 0.39399999
0.092747428 -0.021499058 0.398
0.10078868 -0.021877183 0.405
0.11408059 -0.023281643 0.43099999
0.13576943 -0.026144583 0.484
0.1407627 -0.025658423 0.47499999
0.14453459 -0.025010211 0.463
0.14825462 -0.024416016 0.45199999
0.15162644 -0.02382182 0.44100001
0.15500972 -0.023281643 0.43099999
0.15770099 -0.022687448 0.41999999
0.16082665 -0.022201288 0.41100001
0.16285317 -0.021607094 0.40000001
0.16580036 -0.021174952 0.39199999
0.16717798 -0.020580756 0.38100001
0.16957122 -0.020148614 0.373
0.17171122 -0.019716473 0.36500001
0.17311174 -0.019230314 0.35600001
0.17472945 -0.018798171 0.34799999
0.17609392 -0.018366029 0.34
0.17773892 -0.017987905 0.333
0.17916234 -0.017609781 0.32600001
0.18036416 -0.017231656 0.31900001
0.18134442 -0.016853534 0.31200001
0.18270014 -0.016529426 0.30599999
0.031985655 -0.028332751 0.74199998
0.04260968 -0.027607249 0.72299999
0.05210894 -0.026614457 0.69700003
0.060875773 -0.02565985 0.67199999
0.044481952 -0.015961038 0.41800001
0.048286121 -0.015082799 0.39500001
0.054123655 -0.014968246 0.39199999
0.059866223 -0.014853694 0.389
0.065683551 -0.014777324 0.38699999
0.071808681 -0.014777324 0.38699999
0.078336567 -0.014853694 0.389
0.085144967 -0.014968246 0.39199999
0.092281356 -0.015120983 0.396
0.1000421 -0.015350089 0.40200001
0.10772807 -0.015541011 0.40700001
0.11781644 -0.016037406 0.41999999
0.13868831 -0.017870253 0.46799999
0.1432859 -0.017526595 0.45899999
0.14694263 -0.017106567 0.44800001
0.15059496 -0.016724724 0.43799999
0.15357111 -0.016304696 0.42699999
0.15657455 -0.015922854 0.417
0.15887013 -0.015502826 0.40599999
0.16163176 -0.015159167 0.39700001
0.16368556 -0.014777324 0.38699999
0.16586161 -0.014433666 0.37799999
0.16820738 -0.014128191 0.37
0.16982946 -0.013784532 0.361
0.17165293 -0.013479059 0.35299999
0.17272106 -0.0131354 0.34400001
0.17454016 -0.012868109 0.33700001
0.17613767 -0.01260082 0.33000001
0.17806318 -0.012371713 0.324
0.17866795 -0.012066239 0.31600001
0.18018195 -0.011837133 0.31
0.18150602 -0.011608028 0.30399999
0.031640798 -0.016405538 0.73400003
0.041725662 -0.015824415 0.708
0.05128656 -0.015332696 0.68599999
0.059969883 -0.014796276 0.662
0.045014031 -0.009454418 0.42300001
0.048041634 -0.0087838918 0.39300001
0.053985585 -0.0087391902 0.391
0.059866223 -0.0086944876 0.389
0.065683551 -0.008649786 0.38699999
0.071623124 -0.0086274352 0.38600001
0.078537941 -0.0087168384 0.38999999
0.08492776 -0.0087391902 0.391
0.092048325 -0.0088285934 0.39500001
0.099544376 -0.0089403475 0.40000001
0.106934 -0.0090297507 0.40400001
0.11360871 -0.0090521015 0.405
0.13009436 -0.0098120319 0.43900001
0.14172506 -0.010147294 0.454
0.14530264 -0.0099014351 0.44299999
0.14887585 -0.0096779261 0.433
0.15177286 -0.0094320662 0.42199999
0.15469715 -0.0092085581 0.412
0.1573049 -0.0089850491 0.40200001
0.16000324 -0.0087838918 0.39300001
0.16199373 -0.0085603828 0.38299999
0.16410646 -0.0083592245 0.37400001
0.16638891 -0.0081804181 0.366
0.16794769 -0.0079792598 0.35699999
0.17019412 -0.0078228042 0.34999999
0.17171687 -0.0076439972 0.34200001
0.17298639 -0.0074651903 0.33399999
0.17507017 -0.0073310849 0.32800001
0.17641445 -0.0071746288 0.32100001
0.17753714 -0.0070181726 0.31400001
0.17843826 -0.0068617165 0.30700001
0.1803119 -0.0067499625 0.30199999
0.03112351 -0.0047055893 0.722
0.041077383 -0.0045426534 0.69700003
0.050464183 -0.0043992698 0.67500001
0.058973406 -0.0042428514 0.65100002
0.044907615 -0.0027503583 0.42199999
0.048041634 -0.0025613527 0.39300001
0.053847514 -0.0025418003 0.38999999
0.060020119 -0.0025418003 0.38999999
0.066023 -0.0025352829 0.389
0.072365336 -0.0025418003 0.38999999
0.079343461 -0.0025678701 0.39399999
0.0864482 -0.0025939397 0.398
0.093912594 -0.0026265269 0.403
0.1012864 -0.0026525967 0.40700001
0.10799276 -0.0026591141 0.40799999
0.11276717 -0.0026200095 0.40200001
0.12061141 -0.0026525967 0.40700001
0.13953987 -0.0029132941 0.447
0.14366266 -0.0028546371 0.43799999
0.14715673 -0.0027894629 0.428
0.15033425 -0.0027242885 0.41800001
0.15319523 -0.0026591141 0.40799999
0.15573968 -0.0025939397 0.398
0.15837471 -0.0025352829 0.389
0.16030188 -0.0024701084 0.37900001
0.16279009 -0.0024179691 0.37099999
0.16502507 -0.0023658294 0.36300001
0.16700681 -0.00231369 0.35499999
0.16824904 -0.002255033 0.34599999
0.16970849 -0.0022028936 0.338
0.17143261 -0.0021572716 0.331
0.17293517 -0.0021116494 0.324
0.17476571 -0.0020725448 0.31799999
0.17584093 -0.0020269228 0.31099999
0.17727579 -0.0019878182 0.30500001
0.17852074 -0.0019487136 0.29899999
0.019887233 0.0067913607 0.72899997
0.030606221 0.0066143568 0.70999998
0.040488038 0.0064000892 0.68699998
0.049716566 0.0061951373 0.66500002
0.058158107 0.0059808693 0.64200002
0.060125124 0.0052635376 0.565
0.047919393 0.0036518704 0.39199999
0.053847514 0.0036332384 0.38999999
0.060020119 0.0036332384 0.38999999
0.066192731 0.0036332384 0.38999999
0.072550885 0.0036425544 0.391
0.079343461 0.0036705022 0.39399999
0.087317027 0.0037450304 0.40200001
0.095776863 0.0038288743 0.41100001
0.10974767 0.004108354 0.44100001
0.11990373 0.0042201462 0.45300001
0.11388922 0.0037822942 0.40599999
0.11972238 0.0037636622 0.40400001
0.12830175 0.0038288743 0.41100001
0.13677472 0.0038847702 0.417
0.14337467 0.0038847702 0.417
0.148536 0.0038475061 0.41299999
0.15169333 0.0037636622 0.40400001
0.15417446 0.0036705022 0.39399999
0.15715331 0.0035959743 0.38600001
0.159033 0.0035028143 0.37599999
0.16103494 0.0034189704 0.36700001
0.162752 0.0033351264 0.35800001
0.16512504 0.0032699145 0.35100001
0.16679023 0.0031953866 0.34299999
0.1687043 0.0031301745 0.336
0.16987884 0.0030556465 0.32800001
0.17133391 0.0029904346 0.32100001
0.17311698 0.0029345388 0.315
0.17471011 0.0028786426 0.30899999
0.17611332 0.0028227468 0.303
0.17792368 0.0027761667 0.29800001
0.019614432 0.018082438 0.71899998
0.03013204 0.017579449 0.699
0.039780822 0.016975865 0.67500001
0.048894186 0.016447727 0.65399998
0.057523984 0.015969887 0.63499999
0.064807437 0.015316002 0.60900003
0.048897337 0.010059771 0.40000001
0.053571373 0.0097579779 0.38800001
0.059866223 0.0097831273 0.389
0.066023 0.0097831273 0.389
0.072736442 0.0098585756 0.39199999
0.079544842 0.009934024 0.39500001
0.087751441 0.010160369 0.40400001
0.098340236 0.010613059 0.42199999
0.11945325 0.012071726 0.47999999
0.12466811 0.011845381 0.47099999
0.12567087 0.011266944 0.44800001
0.12120409 0.010286116 0.40900001
0.12611657 0.010160369 0.40400001
0.13349475 0.010235817 0.40700001
0.14096789 0.010311265 0.41
0.14709739 0.010286116 0.40900001
0.14981593 0.010034622 0.39899999
0.15260923 0.0098082768 0.38999999
0.15552478 0.0096070813 0.382
0.15776412 0.0093807364 0.373
0.15971859 0.0091543915 0.36399999
0.16138816 0.0089280466 0.35499999
0.16371372 0.0087520005 0.34799999
0.16533144 0.008550806 0.34
0.16669591 0.0083496105 0.33199999
0.16832508 0.0081735644 0.32499999
0.17080016 0.0080478173 0.31999999
0.17201783 0.0078717712 0.31299999
0.17357931 0.0077208746 0.30700001
0.1755321 0.0075951274 0.30199999
0.17672956 0.0074442308 0.296
0.019341631 0.029056847 0.70899999
0.029657859 0.028196208 0.68800002
0.039250411 0.027294585 0.66600001
0.048221331 0.026433945 0.64499998
0.056618094 0.025614288 0.625
0.064275354 0.024753647 0.60399997
0.057087645 0.019138996 0.46700001
0.053295232 0.015819384 0.38600001
0.059712324 0.015901349 0.38800001
0.066023 0.015942333 0.389
0.072550885 0.016024299 0.391
0.079343461 0.016147247 0.39399999
0.088185854 0.016639041 0.40599999
0.10999192 0.019343911 0.472
0.11845781 0.019507842 0.47600001
0.12360936 0.019138996 0.46700001
0.12763448 0.018647201 0.45500001
0.13127974 0.018155407 0.44299999
0.12923826 0.016966904 0.414
0.13480674 0.016843956 0.41100001
0.14131172 0.016843956 0.41100001
0.14565879 0.016598059 0.405
0.14868949 0.016229212 0.396
0.15104401 0.015819384 0.38600001
0.15348911 0.015450538 0.377
0.15564932 0.015081692 0.368
0.15796344 0.01475383 0.36000001
0.16002432 0.014425967 0.352
0.16183195 0.014098104 0.34400001
0.16387263 0.013811224 0.33700001
0.16518962 0.013483361 0.329
0.16728923 0.013237464 0.32300001
0.16973266 0.01303255 0.31799999
0.17091867 0.012745669 0.31099999
0.1724485 0.012499772 0.30500001
0.17436963 0.012294858 0.30000001
0.17553544 0.012048961 0.294
0.019096108 0.039771404 0.69999999
0.029226786 0.038521446 0.67799997
0.038661066 0.037271488 0.65600002
0.047548473 0.036135163 0.63599998
0.055621617 0.034885205 0.61400002
0.063424021 0.033862509 0.59600002
0.068456277 0.031817123 0.56
0.053295232 0.021931089 0.38600001
0.05940453 0.021931089 0.38600001
0.065683551 0.021987906 0.38699999
0.072365336 0.022158355 0.38999999
0.079746217 0.022499252 0.396
0.090140715 0.023578761 0.41499999
0.11185619 0.02727182 0.47999999
0.1172135 0.026760474 0.47099999
0.12228592 0.026249127 0.46200001
0.12623189 0.025567332 0.44999999
0.13068706 0.025055986 0.44100001
0.13454515 0.024487821 0.43099999
0.13743071 0.023806026 0.419
0.14096789 0.02329468 0.41
0.14422019 0.022783333 0.40099999
0.14756306 0.022328803 0.39300001
0.1502614 0.021817457 0.384
0.15226771 0.021249294 0.37400001
0.15480341 0.020794762 0.366
0.15664707 0.020283416 0.35699999
0.15866047 0.019828886 0.34900001
0.16042063 0.019374356 0.34099999
0.16241382 0.018976642 0.33399999
0.16468753 0.018635744 0.32800001
0.16573545 0.018181214 0.31999999
0.16813141 0.017897133 0.315
0.16981952 0.017556235 0.30899999
0.17131768 0.017215336 0.303
0.17320716 0.016931254 0.29800001
0.17493838 0.016647173 0.29300001
0.0081086932 0.051436007 0.708
0.018796027 0.05005566 0.68900001
0.028709497 0.048384719 0.66600001
0.038012788 0.046859074 0.64499998
0.046726093 0.045406077 0.625
0.054896902 0.044025734 0.60600001
0.062466279 0.042645387 0.58700001
0.068456277 0.040683847 0.56
0.053157162 0.027970145 0.38499999
0.05925063 0.027970145 0.38499999
0.065513827 0.028042793 0.38600001
0.07199423 0.028188093 0.38800001
0.079746217 0.028769292 0.396
0.094919257 0.03174793 0.43700001
0.11045799 0.034435969 0.47400001
0.11547147 0.033709474 0.46399999
0.1204331 0.033055626 0.45500001
0.12510984 0.032401778 0.44600001
0.12920535 0.031675279 0.43599999
0.13329647 0.031021433 0.42699999
0.13677472 0.030294936 0.417
0.13993642 0.029568437 0.40700001
0.14278157 0.028841941 0.39700001
0.14568567 0.028188093 0.38800001
0.14869617 0.027606895 0.38
0.15104632 0.026953047 0.37099999
0.15268861 0.02622655 0.361
0.15533072 0.025718004 0.354
0.15729663 0.025136804 0.34599999
0.15900931 0.024555607 0.338
0.16095501 0.024047058 0.331
0.16267914 0.023538511 0.324
0.16469961 0.023102613 0.31799999
0.16706391 0.022739364 0.31299999
0.16872036 0.022303466 0.30700001
0.17018688 0.021867568 0.301
0.17146347 0.02143167 0.29499999
0.1731472 0.02106842 0.28999999
0.0080285221 0.062026694 0.70099998
0.018495945 0.05999158 0.67799997
0.028278423 0.058044951 0.65600002
0.037423439 0.056186806 0.63499999
0.045978475 0.054417141 0.61500001
0.053900424 0.052647479 0.59500003
0.061614949 0.051231749 0.579
0.067845054 0.049108151 0.55500001
0.053157162 0.034066014 0.38499999
0.05925063 0.034066014 0.38499999
0.065513827 0.034154497 0.38600001
0.07199423 0.034331463 0.38800001
0.080551736 0.035393264 0.40000001
0.095136464 0.038755622 0.43799999
0.10276788 0.039021071 0.44100001
0.10974767 0.039021071 0.44100001
0.11725684 0.039198037 0.44299999
0.12370726 0.039021071 0.44100001
0.12772363 0.03813624 0.43099999
0.13173562 0.037339892 0.42199999
0.13480674 0.036366578 0.41100001
0.1382173 0.03557023 0.40200001
0.14134297 0.034773882 0.39300001
0.14455923 0.034066014 0.38499999
0.14713095 0.033269666 0.37599999
0.14941779 0.032473318 0.36700001
0.15184268 0.031765454 0.359
0.15401435 0.031057589 0.35100001
0.15593278 0.030349722 0.34299999
0.15806842 0.02973034 0.336
0.1594962 0.029022476 0.32800001
0.16167495 0.028491577 0.322
0.16418169 0.028049162 0.317
0.1659964 0.027518261 0.31099999
0.16817078 0.027075846 0.30599999
0.16905607 0.026456464 0.29899999
0.17088224 0.026014049 0.294
-0.0031275831 0.074586362 0.71499997
0.0078910869 0.071874127 0.68900001
0.018195864 0.069579162 0.667
0.027761135 0.067179881 0.64399999
0.036834095 0.06519787 0.625
0.045305621 0.063215852 0.60600001
0.05335689 0.061442472 0.58899999
0.060657203 0.059460457 0.56999999
0.067111596 0.057269808 0.54900002
0.053019088 0.04005757 0.384
0.059096735 0.04005757 0.384
0.065344103 0.040161885 0.38499999
0.071808681 0.04037052 0.38699999
0.082162768 0.04256117 0.40799999
0.096439704 0.046316564 0.44400001
0.10230181 0.045794982 0.43900001
0.10974767 0.046003617 0.44100001
0.11725684 0.046212249 0.44299999
0.12202417 0.045377716 0.435
0.12624192 0.044438869 0.426
0.12986261 0.043395702 0.41600001
0.13349475 0.04245685 0.40700001
0.136842 0.041518003 0.398
0.13990436 0.040579155 0.389
0.14305732 0.039744619 0.38100001
0.14556573 0.038805772 0.37200001
0.14819638 0.03797124 0.36399999
0.1505738 0.037136707 0.35600001
0.15269798 0.036302172 0.34799999
0.15456894 0.03546764 0.34
0.15618666 0.034633107 0.33199999
0.15852366 0.034007207 0.32600001
0.16067076 0.033381309 0.31999999
0.16314584 0.032859724 0.315
0.16492891 0.032233827 0.30899999
0.16707163 0.031712241 0.30399999
0.16849066 0.031086344 0.29800001
-0.0030488467 0.083744563 0.69700003
0.0077880104 0.081702016 0.68000001
0.017895782 0.078818411 0.65600002
0.02737317 0.076295264 0.63499999
0.036303684 0.074012414 0.616
0.044632766 0.071729563 0.597
0.052451003 0.069566861 0.579
0.059805874 0.067524314 0.56199998
0.066255897 0.065121315 0.542
0.053019088 0.046137609 0.384
0.058942836 0.046017457 0.38299999
0.065344103 0.046257757 0.38499999
0.072550885 0.04697866 0.391
0.091224842 0.054427959 0.45300001
0.10143545 0.056110062 0.46700001
0.10533125 0.054307811 0.45199999
0.11173856 0.053947359 0.449
0.11619809 0.05274586 0.43900001
0.12062159 0.051664509 0.43000001
0.12505655 0.050703309 0.42199999
0.1289261 0.049621958 0.41299999
0.13218276 0.048420459 0.403
0.13512288 0.04721896 0.39300001
0.13882542 0.046377908 0.38600001
0.1415554 0.045296557 0.377
0.1443918 0.044335358 0.36899999
0.14697498 0.043374158 0.361
0.14930493 0.042412959 0.35299999
0.15138163 0.041451756 0.345
0.1532051 0.040490557 0.33700001
0.15524577 0.039649509 0.33000001
0.15755112 0.038928606 0.324
0.15916447 0.038087558 0.317
0.16107415 0.037366658 0.31099999
0.16386141 0.036886055 0.30700001
0.16542289 0.036165155 0.301
0.16679445 0.035444256 0.29499999
-0.00300073 0.093284652 0.68599999
0.0076505751 0.09083695 0.66799998
0.017568421 0.087573342 0.64399999
0.026898989 0.084853679 0.62400001
0.035714339 0.08240597 0.60600001
0.043959908 0.079958268 0.588
0.051726289 0.077646554 0.57099998
0.058954548 0.075334832 0.55400002
0.065277949 0.072615162 0.53399998
0.052742947 0.051945679 0.382
0.058788937 0.051945679 0.382
0.065174378 0.052217647 0.384
0.074220859 0.054393381 0.40000001
0.09505105 0.064184189 0.472
0.10100104 0.063232303 0.465
0.10556428 0.061600506 0.45300001
0.11074312 0.060512636 0.44499999
0.11513934 0.059152804 0.435
0.11949953 0.05792895 0.426
0.12357484 0.056705099 0.417
0.12736525 0.055481248 0.40799999
0.13054278 0.054121416 0.398
0.13409141 0.053033546 0.38999999
0.13738681 0.051945679 0.382
0.14042898 0.050857812 0.37400001
0.14282659 0.049633961 0.36500001
0.14534645 0.048546094 0.35699999
0.14761308 0.047458224 0.34900001
0.14962648 0.046370357 0.34099999
0.15184125 0.045418475 0.33399999
0.15383445 0.044466589 0.32699999
0.15657859 0.043786671 0.322
0.15866238 0.042970773 0.31600001
0.16003831 0.042018887 0.30899999
0.16226016 0.041338969 0.30399999
0.16432373 0.040659051 0.29899999
-0.0029569876 0.10262822 0.676
0.0075131394 0.099591881 0.65600002
0.017295618 0.096251905 0.634
0.026511023 0.093367383 0.61500001
0.035183929 0.090634681 0.597
0.043287054 0.08790198 0.579
0.050910991 0.085321091 0.56199998
0.058316048 0.083195657 0.54799998
0.063688785 0.0790966 0.52100003
0.052742947 0.057994049 0.382
0.058635041 0.057842232 0.38100001
0.065513827 0.05860132 0.38600001
0.080344081 0.065736711 0.433
0.094446912 0.071202122 0.46900001
0.099697798 0.069683954 0.45899999
0.10463215 0.068165779 0.449
0.10949881 0.066799432 0.44
0.11408059 0.065433078 0.43099999
0.11809696 0.06391491 0.421
0.12209313 0.062548555 0.412
0.12580439 0.061182205 0.403
0.1292308 0.059815854 0.39399999
0.13271612 0.05860132 0.38600001
0.1359482 0.057386782 0.37799999
0.13892706 0.056172248 0.37
0.14165267 0.054957714 0.36199999
0.14412506 0.053743176 0.354
0.1463442 0.052528642 0.34599999
0.1487489 0.051465925 0.33899999
0.15047741 0.050251391 0.331
0.15289356 0.049340487 0.32499999
0.15511979 0.048429586 0.31900001
0.15715608 0.047518685 0.31299999
0.15900245 0.046607785 0.30700001
0.16119266 0.045848701 0.30199999
0.16377416 0.04524143 0.29800001
-0.013615771 0.11299632 0.67400002
-0.0029132452 0.11165511 0.66600001
0.00739861 0.10830211 0.64600003
0.017050097 0.10478145 0.625
0.026123056 0.10159609 0.60600001
0.034653518 0.098578386 0.588
0.042688958 0.09572833 0.57099998
0.050276868 0.093045928 0.55500001
0.057464719 0.09053117 0.54000002
0.060265969 0.082651608 0.493
0.052466806 0.063707121 0.38
0.058635041 0.063874774 0.38100001
0.066871628 0.066054225 0.39399999
0.087766163 0.079298601 0.47299999
0.093641393 0.077957399 0.465
0.098611772 0.076113246 0.454
0.10346698 0.074436739 0.44400001
0.10800564 0.072760239 0.43399999
0.11249246 0.071251385 0.42500001
0.11669438 0.069742531 0.41600001
0.12031507 0.068066031 0.40599999
0.12424355 0.066724829 0.398
0.12791881 0.065383621 0.38999999
0.13099699 0.063874774 0.38100001
0.13450959 0.062701218 0.37400001
0.13742514 0.061360016 0.366
0.14008746 0.060018815 0.35800001
0.14249653 0.05867761 0.34999999
0.14507532 0.057504058 0.34299999
0.14699376 0.056162857 0.33500001
0.14911357 0.054989304 0.32800001
0.15195267 0.054151054 0.32300001
0.15366098 0.052977502 0.31600001
0.1556498 0.051971599 0.31
0.15744869 0.050965697 0.30399999
0.16012515 0.050295096 0.30000001
-0.013615771 0.12366804 0.67400002
-0.0028695029 0.12036534 0.65600002
0.0072726277 0.11651218 0.63499999
0.016777296 0.11284251 0.61500001
0.02573509 0.1095398 0.597
0.034182042 0.10642058 0.57999998
0.042090867 0.10330135 0.56300002
0.049552154 0.10036561 0.54699999
0.056506976 0.097429872 0.53100002
0.048408367 0.072659567 0.396
0.052328736 0.069540344 0.37900001
0.05925063 0.070641242 0.38499999
0.075357877 0.081466787 0.44400001
0.087023951 0.086053878 0.46900001
0.092433117 0.084219038 0.45899999
0.097308531 0.082200721 0.44800001
0.10230181 0.080549367 0.43900001
0.1070102 0.078898013 0.43000001
0.11143371 0.077246659 0.421
0.11501129 0.075228341 0.41
0.11912969 0.073760465 0.40200001
0.12268271 0.072109111 0.39300001
0.12627882 0.070641242 0.38499999
0.12996551 0.069356859 0.37799999
0.13307099 0.06788899 0.37
0.13554774 0.066237636 0.361
0.13852222 0.064953245 0.354
0.14127512 0.063668862 0.347
0.14380644 0.062384475 0.34
0.14611618 0.061100088 0.333
0.14820433 0.059815701 0.32600001
0.15054135 0.0587148 0.31999999
0.15268844 0.057613898 0.31400001
0.15464561 0.056512997 0.308
0.15641284 0.055412091 0.30199999
-0.013413756 0.13234662 0.66399997
-0.0028213861 0.12855959 0.64499998
0.0071466449 0.12437392 0.62400001
0.016559055 0.12098553 0.60699999
0.025347125 0.1171985 0.588
0.033651631 0.11381011 0.57099998
0.041492771 0.11062104 0.55500001
0.048918031 0.10763128 0.54000002
0.054272234 0.10165177 0.50999999
0.04645247 0.075740531 0.38
0.052328736 0.075541213 0.37900001
0.061559096 0.079726875 0.40000001
0.080449626 0.094476342 0.47400001
0.086096197 0.09248317 0.46399999
0.091224842 0.090290681 0.45300001
0.096222498 0.088297509 0.44299999
0.10136968 0.086702973 0.435
0.10551704 0.084510483 0.42399999
0.11011026 0.082915947 0.41600001
0.11388922 0.080922775 0.40599999
0.11764798 0.079128921 0.39700001
0.12143403 0.077534385 0.389
0.12496683 0.075939849 0.38100001
0.1282464 0.074345313 0.373
0.13163239 0.072950087 0.366
0.13442132 0.071355551 0.35800001
0.13734831 0.069960333 0.35100001
0.13964659 0.068365797 0.34299999
0.14211459 0.066970572 0.336
0.14479981 0.065774672 0.33000001
0.14684048 0.064379454 0.32300001
0.14913003 0.063183546 0.317
0.15122963 0.061987642 0.31099999
0.15313931 0.060791742 0.30500001
0.15589492 0.05999447 0.301
-0.024211247 0.14458121 0.67199999
-0.013231943 0.14092365 0.65499997
-0.0027776437 0.13662064 0.63499999
0.0070435684 0.13231763 0.61500001
0.016286252 0.12844491 0.597
0.025002265 0.12478736 0.57999998
0.033298023 0.1215601 0.565
0.040969439 0.11790254 0.54799998
0.048012145 0.11402982 0.52999997
0.041608714 0.084123887 0.391
0.046207987 0.081326932 0.37799999
0.053571373 0.083478436 0.38800001
0.073255323 0.10241169 0.47600001
0.079770721 0.10112079 0.47
0.085168436 0.09875413 0.45899999
0.090217948 0.096387476 0.44800001
0.09535367 0.094451122 0.43900001
0.10020451 0.092514768 0.43000001
0.10452159 0.090363257 0.41999999
0.10852213 0.088211752 0.41
0.11248665 0.086275399 0.40099999
0.11646262 0.084554195 0.39300001
0.11987317 0.082617834 0.384
0.12365484 0.081111781 0.377
0.12687111 0.079390578 0.36899999
0.12983413 0.077669375 0.361
0.1329194 0.076163314 0.354
0.13578309 0.074657261 0.347
0.1384252 0.073151208 0.34
0.14084572 0.071645156 0.333
0.14348346 0.070354253 0.32699999
0.14502203 0.06863305 0.31900001
0.14818914 0.067772441 0.315
0.14977083 0.066266388 0.308
0.15263721 0.065405786 0.30399999
-0.023742873 0.15221849 0.65899998
-0.013029929 0.14898472 0.64499998
-0.002729527 0.14413404 0.62400001
0.0069404915 0.13997634 0.60600001
0.016068012 0.1360496 0.58899999
0.024657406 0.13212287 0.57200003
0.032649741 0.12796517 0.55400002
0.040371347 0.12473138 0.54000002
0.04402623 0.11225825 0.486
0.040331721 0.087542951 0.37900001
0.046696957 0.088235907 0.382
0.063374378 0.10602168 0.45899999
0.073101431 0.10971742 0.47499999
0.078752376 0.1071766 0.46399999
0.084240675 0.10486676 0.454
0.089211047 0.10232593 0.44299999
0.09405043 0.10001609 0.433
0.098806307 0.097937234 0.42399999
0.10302842 0.095627397 0.414
0.10719869 0.093548536 0.405
0.11108407 0.091469683 0.396
0.1149809 0.089621812 0.38800001
0.11831233 0.087542951 0.37900001
0.12201486 0.085926063 0.37200001
0.12549581 0.084309176 0.36500001
0.12839553 0.082461305 0.35699999
0.13141748 0.080844417 0.34999999
0.13421786 0.079227529 0.34299999
0.13679667 0.077610642 0.336
0.13957684 0.076224737 0.33000001
0.14216709 0.074838832 0.324
0.14365819 0.072990961 0.31600001
0.14630738 0.071836039 0.31099999
0.14879829 0.070681117 0.30599999
0.15163302 0.069757186 0.30199999
-0.023526702 0.16117181 0.653
-0.012848116 0.15697591 0.63599998
-0.0026901588 0.15179275 0.61500001
0.006848868 0.14759685 0.59799999
0.015849771 0.14340095 0.58099997
0.024312548 0.13920505 0.56400001
0.032178264 0.13476235 0.546
0.038876109 0.12834509 0.51999998
0.03451439 0.094037458 0.38100001
0.040650968 0.094284274 0.382
0.052686881 0.10637833 0.43099999
0.066273861 0.11847239 0.47999999
0.072331943 0.11600421 0.47
0.077903748 0.11328922 0.45899999
0.083127357 0.11057423 0.44800001
0.088204153 0.10810605 0.43799999
0.092747189 0.10539106 0.42699999
0.097408101 0.10316971 0.41800001
0.10178412 0.10094835 0.40900001
0.10587525 0.098726995 0.40000001
0.10996201 0.09675245 0.39199999
0.11320285 0.094284274 0.382
0.11737582 0.092803374 0.37599999
0.12037487 0.090582013 0.36700001
0.12412051 0.089101113 0.361
0.12695692 0.087126568 0.35299999
0.13029104 0.085645668 0.347
0.13265264 0.083671123 0.33899999
0.13557526 0.082190223 0.333
0.13830796 0.080709316 0.32699999
0.14041194 0.078981593 0.31999999
0.14229435 0.077253871 0.31299999
0.14536649 0.076266602 0.30899999
0.14831202 0.075279333 0.30500001
-0.023202443 0.16914719 0.64399999
-0.012646101 0.16441947 0.62599999
-0.0026507906 0.15916646 0.60600001
0.0067457915 0.15470138 0.58899999
0.015604249 0.15023632 0.57200003
0.023924582 0.14577125 0.55500001
0.031176379 0.13894233 0.52899998
0.028708512 0.10085795 0.384
0.034786157 0.10085795 0.384
0.048738595 0.12029412 0.458
0.059288025 0.12738569 0.48500001
0.065721579 0.12502183 0.47600001
0.071408555 0.12187003 0.46399999
0.076885402 0.11898086 0.45300001
0.082199596 0.11635435 0.44299999
0.086995877 0.1134652 0.43200001
0.091878369 0.11110134 0.42300001
0.096242934 0.10847483 0.41299999
0.10078868 0.10637362 0.405
0.1048165 0.10400976 0.396
0.10855944 0.1016459 0.38699999
0.11201748 0.099282041 0.37799999
0.11581497 0.097443491 0.37099999
0.11906289 0.095342278 0.36300001
0.12274522 0.093766376 0.35699999
0.12587796 0.091927819 0.34999999
0.12878913 0.090089262 0.34299999
0.13108742 0.087988056 0.33500001
0.13435386 0.086674802 0.33000001
0.13661613 0.084836245 0.32300001
0.13909557 0.083260342 0.317
0.14138511 0.081684433 0.31099999
0.14489605 0.080896482 0.308
-0.033758152 0.18129331 0.65100002
-0.022914214 0.17711604 0.63599998
-0.012444087 0.17154635 0.616
-0.0026114224 0.16625516 0.597
0.0066312617 0.16124244 0.579
0.015358727 0.15678668 0.56300002
0.023148648 0.14954609 0.537
0.022748737 0.10749496 0.38600001
0.028783275 0.10721647 0.38499999
0.044116817 0.13562188 0.48699999
0.052250329 0.13673581 0.491
0.058676805 0.13367249 0.47999999
0.064893156 0.13088764 0.47
0.070485167 0.12754583 0.458
0.075867049 0.12448251 0.447
0.080900736 0.12141918 0.43599999
0.085787602 0.11863433 0.426
0.090575129 0.11612798 0.417
0.095077768 0.11362161 0.40799999
0.099295512 0.11111525 0.39899999
0.10322838 0.10860889 0.38999999
0.10715686 0.10638102 0.382
0.11083211 0.10415314 0.37400001
0.11425412 0.10192527 0.366
0.1177509 0.099975877 0.359
0.12136992 0.098304972 0.35299999
0.1240797 0.096077099 0.345
0.12728722 0.094406195 0.33899999
0.12991349 0.092456803 0.33199999
0.13272533 0.090785898 0.32600001
0.13534723 0.089114994 0.31999999
0.13777922 0.087444082 0.31400001
0.14047588 0.086051665 0.30899999
0.14395517 0.085216209 0.30599999
-0.033239592 0.1886577 0.64099997
-0.022553928 0.18424293 0.62599999
-0.012262275 0.17865089 0.60699999
-0.0025720543 0.17305885 0.588
0.0065510911 0.16834977 0.57200003
0.014840405 0.16010886 0.54400003
0.016682547 0.11390098 0.38699999
0.024222102 0.12096461 0.41100001
0.037829448 0.1489248 0.50599998
0.045113295 0.14657025 0.498
0.05171825 0.14303844 0.486
0.057943348 0.13950662 0.47400001
0.063788593 0.13597481 0.46200001
0.069561779 0.13303164 0.45199999
0.075018428 0.13008846 0.442
0.079601869 0.12626232 0.42899999
0.084176563 0.12302483 0.41800001
0.088620268 0.12008166 0.40799999
0.093912594 0.11861006 0.403
0.09830007 0.11625552 0.39500001
0.10216962 0.11360666 0.38600001
0.10575428 0.1109578 0.377
0.10935039 0.10860326 0.36899999
0.11269327 0.10624871 0.361
0.11643891 0.10448281 0.35499999
0.1196508 0.10242259 0.34799999
0.12300076 0.10065668 0.34200001
0.12578531 0.098596454 0.33500001
0.12873958 0.096830547 0.329
0.13150394 0.09506464 0.32300001
0.13407835 0.093298733 0.317
0.13690165 0.091827147 0.31200001
0.13956666 0.09035556 0.30700001
-0.0328766 0.19663587 0.634
-0.02222967 0.19136329 0.61699998
-0.012040059 0.18485013 0.59600002
-0.0025370603 0.1798877 0.57999998
0.0064480146 0.17461513 0.56300002
0.014594883 0.1659309 0.53500003
0.022588253 0.16251923 0.52399999
0.030469164 0.16034818 0.51700002
0.037679922 0.15631621 0.50400001
0.044569764 0.15259439 0.49200001
0.05107975 0.14887258 0.47999999
0.057209887 0.14515077 0.46799999
0.063098237 0.1417391 0.45699999
0.068638392 0.13832743 0.44600001
0.073660627 0.13460563 0.43399999
0.092048325 0.12250973 0.39500001
0.10750792 0.13398533 0.43200001
0.11116902 0.13026351 0.41999999
0.10491274 0.11599655 0.37400001
0.10816503 0.11320519 0.36500001
0.11144459 0.11072398 0.35699999
0.11479893 0.10855293 0.34999999
0.11861932 0.10700217 0.345
0.12156215 0.10483111 0.338
0.12428339 0.10266005 0.331
0.12717436 0.10079914 0.32499999
0.13028254 0.099248387 0.31999999
0.13280948 0.097387478 0.31400001
0.13558528 0.095836721 0.30899999
0.13865742 0.094596118 0.30500001
-0.039053112 0.18809314 0.57700002
-0.032254331 0.20276244 0.62199998
-0.021833355 0.19754669 0.60600001
-0.011858245 0.19135298 0.58700001
-0.0024976921 0.18613723 0.57099998
0.0063678441 0.18124746 0.55599999
0.014731284 0.17603171 0.54000002
0.022674467 0.17146792 0.52600002
0.03017449 0.16690414 0.51200002
0.03708183 0.16168839 0.49599999
0.043935642 0.15810256 0.48500001
0.050334837 0.15419073 0.47299999
0.056598671 0.1509309 0.463
0.062269814 0.14701907 0.45100001
0.067868903 0.14375922 0.44100001
0.072302826 0.13886946 0.426
0.11348059 0.14864899 0.456
0.1183156 0.14571513 0.447
0.11192562 0.13006787 0.39899999
0.10668331 0.11735447 0.36000001
0.11019591 0.11507258 0.35299999
0.11381494 0.11311667 0.347
0.11690021 0.11083478 0.34
0.12012354 0.10887887 0.33399999
0.12315696 0.10692296 0.32800001
0.12600045 0.10496706 0.322
0.12906113 0.10333713 0.317
0.1315406 0.10138122 0.31099999
0.1347077 0.10007729 0.30700001
-0.045893893 0.15791994 0.46200001
-0.037078544 0.15176722 0.44400001
-0.030118952 0.15210904 0.44499999
-0.027742874 0.18287267 0.53500003
-0.021148812 0.20064721 0.58700001
-0.011676433 0.19757085 0.57800001
-0.002458324 0.19210176 0.56199998
0.0062647671 0.18697448 0.54699999
0.014513043 0.18184721 0.53200001
0.02232961 0.17706177 0.51800001
0.029703014 0.1722763 0.50400001
0.036633257 0.16749085 0.49000001
0.043392107 0.16373086 0.479
0.049696341 0.15962905 0.46700001
0.055742968 0.15586904 0.456
0.061579462 0.15245086 0.44600001
0.066945516 0.14869086 0.435
0.071284473 0.1435636 0.41999999
0.11990373 0.15484358 0.45300001
0.12118262 0.14766541 0.43200001
0.10757234 0.12407996 0.36300001
0.10863507 0.11895269 0.34799999
0.11250295 0.1172436 0.34299999
0.11586873 0.11519269 0.33700001
0.11868494 0.11279996 0.33000001
0.12203052 0.11109088 0.32499999
0.12521783 0.10938178 0.31999999
0.1274326 0.10698906 0.31299999
0.13027172 0.10527997 0.308
-0.045496546 0.1638044 0.458
-0.036660992 0.15700901 0.43900001
-0.022816569 0.15736666 0.44
-0.016429059 0.16308908 0.456
-0.00967649 0.17131507 0.479
-0.0023402194 0.19134356 0.53500003
0.0061387848 0.1917012 0.53600001
0.014322082 0.18776704 0.52499998
0.022027858 0.18275993 0.51099998
0.029290473 0.17775279 0.49700001
0.036184687 0.17310333 0.484
0.042757984 0.16881151 0.472
0.049057845 0.16487734 0.461
0.055009507 0.16094318 0.44999999
0.060612969 0.15700901 0.43900001
0.066176027 0.15379015 0.43000001
0.070096403 0.14771007 0.41299999
0.12426829 0.15843962 0.44299999
0.11883336 0.14341825 0.40099999
0.10769856 0.12338977 0.345
0.11119096 0.12124386 0.33899999
0.11449344 0.11909795 0.333
0.11760598 0.11695204 0.32699999
0.12052861 0.11480613 0.32100001
0.12365261 0.11301788 0.31600001
0.12661834 0.11122962 0.31099999
0.13027172 0.11015666 0.308
-0.044801183 0.16844171 0.45100001
-0.036326952 0.16246594 0.435
-0.029645169 0.16358641 0.43799999
-0.023075849 0.1662008 0.44499999
-0.016320974 0.16918868 0.45300001
-0.0092724608 0.17142959 0.45899999
-0.0020208999 0.17255004 0.46200001
0.0053141718 0.17329702 0.46399999
0.012930794 0.17703186 0.47400001
0.021122603 0.18300761 0.49000001
0.028877931 0.18300761 0.49000001
0.035736118 0.17852581 0.47799999
0.042214449 0.17404398 0.46599999
0.048419349 0.16993564 0.45500001
0.054398291 0.1662008 0.44499999
0.060060687 0.16246594 0.435
0.065252647 0.15835762 0.42399999
0.069078051 0.15200837 0.40700001
0.12801997 0.1613455 0.43200001
0.12049752 0.14416519 0.38600001
0.11119096 0.1266114 0.33899999
0.11311814 0.12287655 0.329
0.11616738 0.12063564 0.32300001
0.11977765 0.1191417 0.31900001
0.12287 0.11727427 0.31400001
0.12580407 0.11540685 0.30899999
-0.16722266 0.16273507 0.41800001
-0.16406493 0.16623895 0.42699999
-0.16135912 0.17052145 0.43799999
-0.045496546 0.17830782 0.458
-0.036076423 0.16818553 0.43200001
-0.030118952 0.17324668 0.44499999
-0.024061108 0.18064372 0.46399999
-0.01614083 0.17441463 0.44800001
-0.0090704467 0.17480394 0.449
-0.0020077771 0.17869714 0.45899999
0.005279813 0.17947577 0.461
0.012603432 0.17986509 0.46200001
0.019958705 0.1802544 0.463
0.027463501 0.18142237 0.46599999
0.035063263 0.18259032 0.46900001
0.041580327 0.17869714 0.45899999
0.047887266 0.17519327 0.44999999
0.053909317 0.17168941 0.44100001
0.059370335 0.1674069 0.43000001
0.064790949 0.16390303 0.421
0.068059705 0.15611666 0.40099999
0.13423298 0.1674069 0.43000001
0.12496683 0.1483303 0.38100001
0.11208667 0.12691779 0.32600001
0.11544807 0.1249712 0.32100001
0.11865121 0.12302461 0.31600001
0.12208739 0.12146733 0.31200001
0.12580407 0.12029938 0.30899999
-0.15791731 0.16651739 0.41100001
-0.15399112 0.16935346 0.41800001
-0.15019593 0.17259467 0.426
-0.1461475 0.17583588 0.43399999
-0.14248769 0.1798874 0.44400001
-0.056315504 0.19811924 0.48899999
-0.042913772 0.17502558 0.43200001
-0.03540834 0.17178437 0.42399999
-0.029103706 0.17421527 0.43000001
-0.023335127 0.18231831 0.44999999
-0.015744515 0.17705134 0.43700001
-0.0089290366 0.1790771 0.442
-0.0020121513 0.18636984 0.46000001
0.00526836 0.18636984 0.46000001
0.012630712 0.18758528 0.463
0.019829383 0.18636984 0.46000001
0.027227763 0.18718013 0.46200001
0.034689452 0.18799044 0.46399999
0.041127384 0.18393892 0.454
0.047461603 0.18069771 0.44600001
0.053420343 0.17705134 0.43700001
0.058956124 0.17299981 0.42699999
0.06417536 0.16894831 0.417
0.066701904 0.15922466 0.39300001
0.13516949 0.17543073 0.433
0.13546273 0.1673277 0.41299999
0.11552491 0.136131 0.336
0.11436912 0.12883827 0.31799999
0.11790026 0.12721767 0.31400001
0.12130477 0.12559706 0.31
-0.14957032 0.17092 0.40599999
-0.14525992 0.17344591 0.412
-0.14075959 0.17597182 0.41800001
-0.13606933 0.17849775 0.42399999
-0.13179933 0.18186562 0.43200001
-0.12611902 0.18354957 0.43599999
-0.050096616 0.18312858 0.435
-0.04261576 0.18060267 0.42899999
-0.035324831 0.17807676 0.42300001
-0.029036023 0.18060267 0.42899999
-0.022453578 0.18228661 0.433
-0.015852602 0.1852335 0.44
-0.0089290366 0.18607548 0.442
-0.0019902801 0.19154829 0.45500001
0.0052454541 0.19281124 0.458
0.012494311 0.19281124 0.458
0.019613845 0.19154829 0.45500001
0.027227763 0.19449517 0.46200001
0.03416612 0.19239025 0.45699999
0.040583849 0.18860139 0.44800001
0.047035936 0.18607548 0.442
0.053053614 0.18270759 0.43399999
0.058956124 0.17976069 0.42699999
0.063867562 0.17470887 0.41499999
